-0.12407543 2.76134086 67.17801666
1.44059885 2.75681186 67.17477417
2.15610123 2.76340795 67.13887024
-0.56383514 2.92395258 67.17205811
-10.13458538 3.09727478 67.14507294
-3.98157406 3.03734827 67.14704132
1.25094223 3.05552340 67.18078613
4.28871202 3.22217989 67.15000153
-7.03727531 3.38250732 67.18638611
-1.23221207 3.37297058 67.12751007
1.43296814 3.35628963 67.19062805
-5.86789322 3.47177076 67.17203522
-1.77536774 3.42165828 67.19152069
3.34633970 3.43765211 67.14955902
4.47405100 3.59029198 67.17500305
-9.55706215 3.63399506 67.19802094
1.23188400 3.66986132 67.19377899
-7.76007652 3.76145720 67.17623901
-4.29891586 3.74463725 67.19900513
-0.65003395 3.72984314 67.13820648
-0.23275375 3.75052023 67.18730164
0.13009420 3.88003540 67.17170715
-7.45242119 3.94515657 67.14485168
-2.84873390 3.95996022 67.14191437
-11.20334816 4.07862854 67.15472412
-7.04953003 4.02466726 67.13130951
0.98258299 4.04742479 67.15000153
-10.66051292 4.15579987 67.19117737
-0.15843010 4.19348907 67.18354797
-5.17048979 4.23081303 67.15000153
-4.71130514 4.23081303 67.15000153
1.85154724 4.21916199 67.16241455
-8.05222321 4.35241079 67.12849426
-1.90385437 4.39603424 67.18694305
3.02503967 4.32660723 67.16191101
3.43829918 4.35810089 67.18139648
-3.16368866 4.46770668 67.17015076
0.15752983 4.48850250 67.16223907
-7.73660946 4.53891754 67.14457703
-4.98867321 4.59929895 67.17500305
-0.45908546 4.54692078 67.19424438
3.73699522 4.59673214 67.13749695
7.68953896 4.59929895 67.17500305
8.05702400 4.59929895 67.17500305
8.88386345 4.59929895 67.17500305
9.34321880 4.50757217 67.17500305
-7.19357920 4.69102812 67.17500305
-3.79293609 4.68928194 67.15000153
-2.29674721 4.77404785 67.18312073
2.60620499 4.71582031 67.14714050
9.61167336 4.77919579 67.12500763
-3.42303801 4.86904097 67.09999847
4.56422281 4.87267017 67.15000153
-5.17048979 4.96436405 67.15000153
-5.90738297 5.05794001 67.17500305
-14.49901295 5.16861725 67.19952393
3.16957092 5.15824890 67.12391663
9.71070385 5.14966822 67.17500305
-3.68418121 5.28151703 67.16033936
-2.52863312 5.29991150 67.16705322
3.65545464 5.21891785 67.15682220
-8.01481628 5.33915091 67.14604950
-7.23594666 5.33008242 67.17176819
-6.27486801 5.33312416 67.17500305
7.22480202 5.51247406 67.12500763
-7.46216583 5.68597937 67.19236755
-6.08999252 5.74482203 67.16250610
-3.63984680 5.87051773 67.12504578
-5.42325497 6.17497158 67.16429901
-4.26423359 6.11903381 67.14861298
-3.87284851 6.18569279 67.15629578
-6.15384722 6.36656094 67.11299133
-6.44683123 6.65763187 67.16868591
-6.09437275 6.74267578 67.19296265
-5.68170547 6.99993896 67.13853455
-4.45153713 6.91291809 67.17594147
-5.04524612 7.05249023 67.18815613
-3.94487858 7.15847015 67.13242340
-4.58524036 7.48987961 67.15165710
-3.41955948 1.46006393 67.28657532
-2.87485123 1.78580332 67.27595520
-3.40251923 1.84919882 67.29246521
-2.14305806 1.94135201 67.25000000
1.72756577 1.99264574 67.29495239
2.34165192 1.98376465 67.27163696
2.73256207 1.94207394 67.27500916
0.83967972 2.03484106 67.29301453
3.28460908 2.03393888 67.27500916
-10.02410507 2.13129568 67.29927063
-8.34711075 2.25285864 67.26467896
-0.93608284 2.24661255 67.24160004
1.39581680 2.24102950 67.21771240
-5.39300156 2.38086271 67.28852844
-4.22253799 2.46464682 67.26411438
-2.51095295 2.49233508 67.25000000
1.17137146 2.53127027 67.25917053
2.63859200 2.58320498 67.22500610
-1.45379591 2.67699099 67.27500916
4.29504395 2.67435908 67.28921509
-9.13305759 2.76782608 67.25000000
-3.55552173 2.73465419 67.24700165
0.52437299 2.76885509 67.27500916
3.52437973 2.79957986 67.28863525
-9.65625763 2.89020681 67.29077148
-6.64553452 2.84963942 67.25251007
-4.57198334 2.86741614 67.25624084
-1.92156982 2.85313725 67.28779602
-8.43514633 2.98985624 67.28712463
0.15179825 3.09213495 67.29771423
1.66294849 3.02148008 67.23622894
2.85739803 3.02641797 67.24569702
3.92933178 3.07083035 67.26641083
-9.43286514 3.18079329 67.26295471
-8.94579506 3.12978554 67.26341248
-5.64117050 3.12306738 67.28267670
-4.37214661 3.15585542 67.24610901
-2.23586297 3.13631392 67.27500916
-1.57663727 3.12713838 67.28988647
-0.26041985 3.15507126 67.24793243
-9.79296970 3.29831696 67.23618317
-8.08847427 3.23535061 67.27571869
-7.55243301 3.24979162 67.29116821
-2.75028992 3.27746272 67.25170898
-0.83785248 3.20917416 67.24214172
-4.71732330 3.36974835 67.23018646
3.66855764 3.32860136 67.27336121
-10.19348526 3.44240570 67.26866150
-6.64031792 3.44001532 67.26658630
-3.85825443 3.41871929 67.24888611
-8.83586884 3.50592566 67.24048615
-5.46886444 3.50562072 67.23188019
1.82069993 3.54816532 67.25461578
2.53580236 3.56374121 67.26042175
0.75409549 3.68613052 67.25000763
-3.72959590 3.77796125 67.25000000
-1.93000412 3.72359681 67.29161835
2.08850694 3.77936602 67.27500916
-8.56073380 3.81137228 67.26573181
-5.89128113 3.82915902 67.25788879
3.46802139 3.86317778 67.29847717
-1.23509407 3.97221899 67.24632263
2.45581770 3.95822835 67.26943970
4.57102013 3.96162200 67.25000000
0.64437020 4.05535698 67.26753998
4.22343063 4.03877497 67.25856018
-9.73985100 4.18661499 67.27114868
-3.79999709 4.14682388 67.27500916
1.30037308 4.18837881 67.23953247
-8.52809334 4.23447418 67.28034210
-6.67733765 4.27606678 67.26864624
-6.27937269 4.24927187 67.26961517
-5.63701010 4.23632526 67.23750305
-2.64893055 4.23711300 67.25000763
-1.49079704 4.32069397 67.23688507
4.57272005 4.33055305 67.27500916
8.34504223 4.42241812 67.27500916
-8.86078930 4.53818512 67.28913116
-4.16647911 4.65033293 67.25000763
4.29350185 4.64862108 67.22500610
-8.04715729 4.74188995 67.23359680
-6.85155249 4.74205065 67.25854492
2.18360138 4.75481415 67.29808044
6.96233511 4.78809595 67.25000000
7.33023024 4.78809595 67.25000000
-8.44134045 4.83616638 67.27412415
-4.53100300 4.87629795 67.20000458
-3.05578136 4.87317133 67.25532532
1.07075214 4.85233307 67.27949524
9.16629505 4.87811184 67.22500610
7.78720284 4.96990919 67.22500610
8.15950966 4.97268105 67.26250458
-7.05173492 5.04855633 67.27828217
-5.45613909 5.15733385 67.27500916
-2.10676956 5.16312408 67.22895813
0.31567764 5.11383772 67.25041199
4.38788843 5.15637541 67.26250458
-3.34776473 5.25212479 67.27631378
4.02067184 5.24919891 67.27500916
-14.96826267 5.36842346 67.29950714
-5.90958309 5.42687082 67.20000458
0.57920647 5.40796661 67.23766327
6.82711411 5.41219282 67.27034760
-6.66476202 5.55945873 67.25832367
-4.05426359 5.53249598 67.25485229
7.60897923 5.61665678 67.27500916
-7.08360291 5.73619986 67.25785828
-4.81029510 5.89006090 67.25000000
-7.51699066 6.06704092 67.26111603
-6.46582079 6.07372093 67.25000000
3.97637367 6.03350067 67.24341583
-4.68207932 6.28277016 67.25384521
-6.78714371 6.43661547 67.28460693
-7.23876190 6.76177359 67.27111816
-5.36267471 6.90998268 67.27406311
-5.25653648 7.96612549 67.27620697
-4.13838959 1.80707884 67.36822510
-1.78713608 1.86939001 67.38912964
1.14891815 1.85538054 67.31268311
-3.10624695 2.06539488 67.30997467
-2.61724091 2.01061916 67.39755249
-0.15474510 2.04775906 67.35836792
3.93450403 2.03696203 67.37500763
-3.62587738 2.24054646 67.35374451
-4.96527481 2.32060194 67.32463074
2.92091298 2.31296492 67.37500763
3.52209854 2.32718897 67.39910889
-10.21104431 2.48729849 67.35227203
-9.73637390 2.43240499 67.34730530
-3.31531525 2.44493341 67.36271667
-11.12110901 2.59082031 67.33594513
-5.85196495 2.54348469 67.35014343
2.45939636 2.85118794 67.37410736
4.57600784 2.88991570 67.36201477
-7.84780121 2.90796018 67.38845825
-1.25284195 2.98792696 67.32749939
-6.12000275 3.03905225 67.39944458
-4.93722916 3.08642793 67.36744690
0.82454300 3.01958776 67.38338470
-6.83629608 3.13213205 67.38369751
-3.62135601 3.14097500 67.37500763
-3.25157094 3.13981009 67.35000610
2.14450073 3.14959097 67.36306763
4.61648560 3.24943781 67.38771057
-0.53813934 3.36937714 67.38616943
3.04426694 3.35300064 67.33501434
-5.05579185 3.45062971 67.31349182
-3.02584076 3.48862767 67.31332397
-0.05944695 3.44746971 67.35212708
0.30772781 3.42195821 67.39569092
4.01825190 3.41591454 67.36656189
-8.13342381 3.59964490 67.35000610
-0.99624252 3.58201623 67.36188507
-6.89667130 3.68328047 67.30473328
-2.69890809 3.69161201 67.35000610
-1.55216217 3.63401365 67.36866760
-5.27800083 3.78357911 67.35000610
-4.72709179 3.78498411 67.37500763
-2.33529663 3.74643207 67.32632446
1.53874302 3.78498411 67.37500763
-11.01203823 3.87995148 67.39723206
-6.48455811 3.81727934 67.33148193
-9.43064880 3.96732330 67.33960724
-8.22858715 3.96898508 67.37500763
3.85049057 3.90150499 67.36199951
-11.58018303 4.02559280 67.31721497
-9.07515335 4.09370422 67.34973907
-7.83669281 4.07727289 67.37266541
-4.44900703 4.05948019 67.35000610
-1.73174667 4.08779144 67.35192871
-0.81486893 4.01197815 67.35021210
-0.44899940 4.04826927 67.36921692
2.84662247 4.02568531 67.32340240
-3.43579149 4.15144730 67.35000610
-3.06791878 4.15221739 67.36250305
2.16245699 4.15673161 67.36050415
-7.42860413 4.22025776 67.36949158
-2.17840576 4.22368717 67.33798981
7.84918594 4.33618546 67.36250305
0.66523457 4.44291687 67.34484863
1.06827736 4.44091797 67.34880829
1.58908081 4.43161917 67.35977173
2.47786474 4.41715765 67.36714172
-13.74783039 4.59045410 67.38052368
-1.18353653 4.58575487 67.34521484
9.64747047 4.52099323 67.37500763
-3.52921200 4.61299276 67.37500763
2.94636416 4.64988136 67.36507416
-14.12781239 4.78982544 67.39891815
-7.58076096 4.79521608 67.35000610
-6.20140600 4.70499420 67.37500763
3.38182878 4.77012348 67.33283234
4.00081253 4.77853203 67.38961029
6.32321692 4.79165602 67.30000305
8.61324310 4.72387218 67.37956238
-14.75825214 4.94271088 67.30948639
-6.56510782 4.97730207 67.32500458
-2.64642715 4.96156311 67.35842133
1.42701530 4.90421295 67.39965057
-3.82548904 5.01416779 67.38454437
4.99705124 5.04575205 67.36618042
8.53856659 5.07111597 67.35000610
7.86503172 5.34834051 67.36667633
8.26223469 5.34701777 67.35000610
-4.63150692 5.43696594 67.32500458
3.16127014 5.40048170 67.38225555
-2.78792572 5.51322937 67.39137268
-3.60731888 5.63948011 67.38825989
-4.44525337 5.73268127 67.38647461
-4.05891800 5.87757063 67.33528137
-3.36233807 5.88960266 67.36633301
-6.10699511 6.08275414 67.35000610
-7.17587852 6.14392853 67.35513306
-5.04651260 6.18077517 67.33369446
-5.73194885 6.37858820 67.37616730
-4.25537014 6.43230438 67.37390900
-5.04545116 6.59302521 67.36431885
-5.67035389 6.73562002 67.36800385
-6.65158892 6.86208153 67.36613464
-4.15134096 6.98717499 67.37580109
-5.61166859 7.89151382 67.34780121
-3.25359535 1.14753675 67.46188354
-0.95056999 1.57929695 67.47500610
-9.38166046 1.69498396 67.49270630
-3.80861282 1.64260244 67.43470001
-2.33392692 1.67081594 67.45000458
-0.49413300 1.75006175 67.48519897
-9.76320648 1.89435148 67.46672058
-4.57263184 1.88379908 67.46830750
0.11924362 1.80135489 67.44419861
3.56989503 1.85502303 67.45000458
-0.95021802 1.94712603 67.45000458
0.51607513 1.90611434 67.48262787
-1.39157486 2.00521612 67.49618530
-7.98976135 2.19626546 67.47474670
-5.22439194 2.12608957 67.47132874
-4.26703262 2.19708681 67.49951935
-8.65937042 2.25144911 67.46762848
-2.27368736 2.26077843 67.43379211
-1.88104439 2.26737714 67.44281006
4.35560226 2.22932243 67.45301056
-2.93433189 2.38662481 67.47199249
-1.35596919 2.35811567 67.47927094
0.36936921 2.34876537 67.46228027
1.72558999 2.31639791 67.47500610
4.73080826 2.31608343 67.48608398
-7.78510284 2.49729013 67.46963501
-4.53029633 2.46672201 67.49589539
-0.37953186 2.47322607 67.49687195
2.05412126 2.45335674 67.42733002
3.93522358 2.43851328 67.43935394
-9.38994980 2.56415987 67.46403503
-7.14058685 2.55436087 67.48180389
-6.49357605 2.51051378 67.49269867
0.05795288 2.58405471 67.45281982
-5.47235918 2.68494892 67.47500610
-2.73478699 2.69995856 67.47204590
0.77854156 2.65566587 67.48811340
3.17437744 2.63770843 67.42739868
-10.05165291 2.78623056 67.46144104
-2.35211086 2.77947640 67.46989441
1.67050552 2.72015142 67.49058533
-4.26754379 2.86974096 67.46698761
5.45159149 2.88626814 67.44165039
-11.55076599 2.95864868 67.42072296
-2.55759811 3.08239865 67.47151184
3.27350497 3.04313469 67.45548248
-7.27151108 3.10576868 67.46360779
-6.47380447 3.17503500 67.49702454
-5.32761765 3.10853076 67.49359131
-10.56022167 3.26506805 67.45721436
5.24890900 3.29345369 67.47143555
-8.41599846 3.32621098 67.40000153
-4.17039490 3.35343766 67.46507263
-1.33844757 3.31593299 67.47482300
0.87210083 3.39644837 67.46324158
-2.12658262 3.43389130 67.42762756
-12.09005547 3.55022430 67.45137024
-9.85094357 3.56845856 67.46800995
-9.28555870 3.59918213 67.41978455
-7.74815369 3.52206540 67.44483948
-6.08836365 3.54659390 67.49533844
-3.53313994 3.51288605 67.45000458
-7.23081207 3.67730856 67.49394226
-4.08813810 3.69846296 67.47500610
3.10750699 3.69572306 67.42500305
4.76910877 3.65104151 67.45000458
-14.49950981 3.79035950 67.46041870
-10.34630871 3.73642731 67.48599243
0.45490837 3.76857376 67.44602203
4.36081696 3.76320291 67.46303558
0.98733902 3.88273907 67.47500610
-6.77708435 3.98486018 67.44630432
-6.17173767 3.95230937 67.42871094
3.19971895 4.06400013 67.42500305
-10.25712395 4.13233948 67.42154694
3.58477020 4.17230988 67.46726990
-11.34520721 4.24817657 67.48606873
0.24881101 4.24656391 67.40000153
3.97248840 4.23664951 67.41058350
4.86315680 4.25128889 67.47500610
9.01247978 4.24971390 67.45000458
-8.24873734 4.45742798 67.45524597
-7.86637115 4.46183729 67.46902466
-7.09445953 4.44326258 67.48529053
-5.83932018 4.43392086 67.45000458
-5.19359016 4.43392086 67.45000458
-3.94677210 4.43227768 67.42500305
-2.92321014 4.46918011 67.47503662
1.93015099 4.44537020 67.45323944
-6.52545547 4.59072447 67.47467041
-2.44700241 4.53713274 67.45436096
-0.76744461 4.54291534 67.45764160
7.36304474 4.52115393 67.47643280
-2.00067139 4.60681248 67.45025635
-1.59114265 4.65755463 67.45960999
4.76910877 4.61812782 67.45000458
-14.49024391 4.76444244 67.46139526
-13.40776539 4.71336365 67.48234558
-5.56464100 4.71197701 67.47500610
-0.32468033 4.78116941 67.47677612
0.12514114 4.72370386 67.49352264
-15.21270370 4.86635590 67.46440887
-13.06384182 4.88741302 67.48204803
0.66362000 4.82194710 67.49087524
6.65290451 4.88112020 67.41654968
9.47371578 4.84838772 67.45000458
-13.84021378 4.99974823 67.47860718
-7.86447239 4.98349094 67.47088623
-4.17732096 4.98469400 67.42500305
-1.86740875 4.95276642 67.47901154
2.45613098 4.93018007 67.44869232
3.65010810 4.96409082 67.46765137
4.65613937 4.96794891 67.48262024
-13.44113541 5.07422638 67.45647430
2.79279709 5.06737471 67.47380829
7.44427681 5.07864618 67.45000458
-14.25360298 5.13791275 67.45834351
-8.32826424 5.19106293 67.45442963
-7.53820324 5.16084957 67.48265076
-2.94151688 5.15640736 67.48542786
8.92023277 5.17075014 67.45000458
-1.15762329 5.23088074 67.49499512
6.52422190 5.26480389 67.47500610
9.47722721 5.26480389 67.47500610
-4.29300690 5.34568787 67.47241974
3.56617737 5.34624052 67.47044373
4.64404058 5.34411812 67.43478394
-7.96031189 5.48642111 67.47934723
0.24982452 5.43743467 67.45136261
7.35475492 5.44907999 67.47500610
8.63708305 5.44302177 67.40000153
-6.21060991 5.54121590 67.47500610
3.90127563 5.58843565 67.48458862
4.31196976 5.51662588 67.43733215
4.68718338 5.76842260 67.48204803
-7.94470215 5.86539030 67.48766327
7.36747360 5.81271458 67.45904541
-6.75803280 5.95032883 67.41250610
-3.62378883 6.15093994 67.48356628
-7.80863190 6.25760221 67.49001312
-7.45064163 6.38870192 67.46434021
-5.37908077 6.36927605 67.46250916
-6.22921753 6.41282654 67.47244263
6.52180481 6.55230284 67.45000458
-4.66826868 6.63797760 67.49085999
-6.03796387 6.97929478 67.45596313
-7.04642105 7.00662184 67.47419739
-4.74521255 7.07276344 67.47023010
-4.80828571 7.58257294 67.43536377
-6.05789566 7.81659698 67.41080475
-2.86185837 1.42534590 67.57212067
-1.96785104 1.58105302 67.55000305
-5.25673676 1.65787840 67.58732605
-4.85019302 1.68602037 67.59815979
-3.20080566 1.69546938 67.56740570
2.46749306 1.67391205 67.57500458
1.86937714 1.72303820 67.56884766
2.95529938 1.89630461 67.59020996
-3.64695358 1.95931196 67.58952332
1.38214874 1.97242141 67.56532288
-9.16347504 2.04316187 67.59512329
2.04135513 2.03763103 67.53931427
2.49821091 2.07130766 67.58248901
-0.65475333 2.13650560 67.55208588
3.24934006 2.18262362 67.59826660
-5.64152908 2.29819727 67.57862091
1.03000259 2.27996588 67.59718323
-8.29204178 2.38612223 67.59915161
-3.92517471 2.32564688 67.57087708
-0.86534077 2.43088579 67.53665924
1.35847497 2.41210604 67.57500458
2.45160937 2.48397779 67.54592133
-8.95835876 2.51106787 67.54790497
-3.63076210 2.54955649 67.55000305
5.08285522 2.50259352 67.51193237
-8.61066055 2.63077116 67.51364136
-5.10701513 2.68693900 67.52500916
-1.15651703 2.63879514 67.58384705
2.74977112 2.69369078 67.54734802
-8.22282028 2.75600100 67.52920532
-7.45403671 2.72540617 67.54957581
-3.07759690 2.78120303 67.57500458
-1.64334869 2.75471950 67.56266022
1.16009021 2.78527117 67.55120850
4.03308105 2.78325772 67.54595947
-5.83472157 2.85923982 67.50357819
-3.44663191 2.87294555 67.56250000
-0.85184431 2.86093259 67.58154297
-0.48970699 2.87241411 67.55000305
0.26713121 2.85383987 67.54500580
-8.98028564 2.96166205 67.58580017
-9.75802994 3.09995699 67.58573914
-1.97647095 3.05891562 67.57821655
3.67045975 3.07541299 67.51829529
4.31425905 3.05689406 67.55000305
5.82418060 3.06565142 67.58105469
-8.70665359 3.18161631 67.53166962
-0.12021600 3.15029907 67.57500458
1.17277002 3.14796901 67.52500916
1.72814798 3.15029907 67.57500458
2.55991101 3.15029907 67.57500458
-11.36787033 3.26952362 67.57130432
-0.82924652 3.29623294 67.59303284
0.56261659 3.23370910 67.55635071
-9.53479195 3.39166689 67.55792236
-9.05701065 3.34262133 67.57608795
-4.55628681 3.33484793 67.57500458
-1.69132400 3.33484793 67.57500458
-6.89043427 3.43559408 67.59349060
-2.61550593 3.42712212 67.57500458
3.35931778 3.41068959 67.51815033
-5.66320896 3.51809406 67.55000305
1.26605701 3.51939607 67.57500458
3.71778488 3.53238320 67.59564972
-10.80293274 3.60855865 67.56165314
-8.76679039 3.66401243 67.58553314
-11.75060368 3.75012970 67.54071808
-0.56428909 3.76612616 67.55393982
-0.13893318 3.71862793 67.55903625
-3.35485101 3.88849306 67.57500458
1.82056606 3.88849306 67.57500458
-12.05645943 3.97126007 67.56465912
-10.00734043 3.93633270 67.57577515
-7.51742554 3.92538381 67.54069519
-2.63294840 3.97377634 67.54632568
-2.07487488 3.94210768 67.59242249
-1.44515038 3.95071244 67.54418945
-10.77381325 4.07816315 67.57176971
-8.73501205 4.07116079 67.57743835
-0.02778700 4.07153511 67.55000305
1.35847497 4.07304096 67.57500458
0.65547943 4.17641401 67.59779358
4.37094498 4.12992859 67.56696320
8.15120888 4.16531610 67.57500458
-12.45572376 4.24224091 67.56950378
-9.48963928 4.23641968 67.56888580
-1.10199928 4.29646301 67.56710052
9.35092354 4.25680161 67.56250000
-10.53038788 4.35150146 67.54376221
-9.96962929 4.35583496 67.50161743
-0.42188835 4.38090420 67.52702332
2.91976643 4.32673168 67.51284027
-9.14227581 4.41156769 67.56912231
3.32374954 4.46693611 67.54271698
-12.20977116 4.51613617 67.54106903
6.89845705 4.53105783 67.52500916
7.82579803 4.65170956 67.54848480
-8.79420662 4.78279114 67.53309631
1.85521185 4.76800156 67.57588959
4.35505486 4.78205299 67.54731750
8.16917038 4.71005106 67.58793640
9.12160015 4.71896076 67.57500458
-11.97829533 4.83805084 67.59525299
-3.22395420 4.85891056 67.56536865
-1.15997505 4.87152863 67.55793762
-12.72187614 4.98532104 67.58874512
-6.02827978 4.99023914 67.50000000
-2.34359741 4.92595673 67.55859375
-0.67234802 4.90524292 67.50003052
3.13151479 4.92210197 67.55211639
2.12625504 5.01676512 67.55709839
-14.62949371 5.28728485 67.53087616
-6.58704901 5.27065563 67.55000305
-7.24373817 5.35866547 67.57228088
-3.81433105 5.31920052 67.58212280
-2.46301460 5.35099792 67.54532623
-3.15608931 5.42722034 67.57135010
-0.94051933 5.49922180 67.56338501
-15.27247620 5.56440353 67.55135345
-7.53345490 5.55843735 67.54306030
5.04534912 5.59752226 67.52481842
0.55928326 5.66655445 67.57341003
3.39497375 5.65701628 67.58145142
5.79454708 5.64170313 67.57500458
6.99080610 5.63752890 67.52500916
8.05132961 5.63648510 67.51250458
8.46683502 5.72867393 67.51250458
8.84107399 5.73185587 67.55000305
-7.23719215 5.84096241 67.57689667
4.32681274 5.95567274 67.57176971
-4.51914597 6.06341553 67.56279755
6.37621689 6.04742861 67.55111694
6.81114578 6.01079988 67.57500458
4.04126358 6.24395514 67.58515930
6.85354137 6.37635612 67.53750610
-6.97955990 6.40640259 67.58845520
-7.70996094 6.66204309 67.58941650
-3.96849823 6.61690044 67.56155396
7.08839989 6.65672016 67.57500458
-8.25588894 6.83735657 67.56993866
-5.12003326 6.86882019 67.58507538
6.71375704 6.83620501 67.52500916
-5.66530514 7.02581596 67.57500458
-6.63706207 7.16584301 67.56661987
-4.37084866 7.26063967 67.58159637
-6.06758213 7.38055420 67.58368683
-5.08865356 7.30990028 67.56781006
-4.46783257 7.68023300 67.58724976
-5.40361404 7.72192764 67.58228302
2.65625405 0.84469199 67.67500305
-3.61498642 1.28743458 67.64087677
-2.52588797 1.21388698 67.65000153
-1.04594302 1.21433496 67.67500305
-1.63297081 1.55649292 67.68348694
-2.61937594 1.67638910 67.67500305
1.15201759 1.68656254 67.66113281
3.93551636 1.74908948 67.66303253
-5.56768036 1.83591032 67.66867065
-7.74251556 1.98807836 67.68078613
-2.88784790 1.92142057 67.66877747
-2.35176992 1.95395732 67.65869904
0.85166168 1.94651759 67.64911652
4.22262001 1.96660113 67.67716217
4.62491989 1.91657913 67.65585327
-4.92334747 2.06995916 67.64923859
-9.91812134 2.18237925 67.69889832
-9.50689697 2.11242914 67.61784363
0.05172601 2.12765837 67.65940094
3.77256584 2.16357613 67.65864563
4.97012711 2.13844299 67.67500305
-7.51651001 2.28815055 67.66206360
-3.38388443 2.24123216 67.66035461
-6.10378647 2.36574316 67.63767242
-9.82783127 2.59719515 67.65522766
-2.06328511 2.59953594 67.65000153
4.43295240 2.54740977 67.62598419
5.56237030 2.58099508 67.68949890
-10.29211044 2.60831690 67.67295837
-6.82119370 2.69588232 67.68695068
-4.71905899 2.68991208 67.69601440
3.52088547 2.66373205 67.65882111
4.78148222 2.69091797 67.62500763
-11.72963428 2.73260498 67.63673401
-11.01733017 2.73018312 67.65400696
-9.35960388 2.87644029 67.68981934
-6.29078293 2.92839193 67.69958496
-3.82117796 2.96904302 67.65000153
2.93391895 2.97013998 67.67500305
5.06268215 2.97013998 67.67500305
-8.35778236 3.06255007 67.67500305
-1.16964912 3.04433441 67.68051910
-7.70409393 3.11712623 67.65473938
-5.67159319 3.15379596 67.65000153
6.23456955 3.14387560 67.63150787
-11.74769402 3.27845764 67.62900543
-3.04210949 3.24159884 67.61861420
4.82910872 3.25024199 67.66632080
-10.21408272 3.36672211 67.66184235
-8.07713127 3.33854961 67.65000916
-5.11835909 3.33978295 67.67500305
-3.81835389 3.33608198 67.60000610
-6.38233948 3.46679497 67.67545319
4.26416016 3.41478324 67.64570618
-12.48399353 3.57069397 67.69395447
5.06268215 3.52460408 67.67500305
-8.42744827 3.69075060 67.69513702
0.20789337 3.62956738 67.69029236
-9.61354256 3.76736450 67.66793823
-1.78638196 3.70942593 67.67500305
-1.16072083 3.70175862 67.69923401
-7.94175339 3.83368969 67.65507507
4.96645498 3.89137101 67.62500763
9.22765255 3.89424801 67.67500305
-9.25845337 3.91871643 67.64949036
-5.85879898 3.98665810 67.67500305
-4.28810120 3.96315026 67.65380859
-0.95338798 3.98665810 67.67500305
-8.31303024 4.16549444 67.67332458
-6.32157278 4.17148018 67.67500305
-11.86755085 4.28140259 67.61810303
-6.78434801 4.26388979 67.67500305
-1.84520721 4.26894903 67.67089081
1.05237198 4.24282265 67.67765808
7.59186172 4.24103594 67.67660522
-3.26363993 4.35147381 67.60000610
-1.46275842 4.36512423 67.65792847
2.19348001 4.35630083 67.67500305
8.44691467 4.31228781 67.69351196
-14.03263569 4.46171570 67.65642548
-7.52848816 4.44506931 67.66355896
-0.02783900 4.44871187 67.67500305
0.44738689 4.45034456 67.67749023
8.76208878 4.47121716 67.64570618
-12.68545437 4.58763885 67.66862488
-8.52940369 4.50198841 67.67055511
1.25150156 4.53105164 67.65895081
2.63480186 4.58201599 67.66107178
3.66473007 4.54160929 67.63322449
5.06081200 4.53944492 67.65000153
0.90487289 4.61461115 67.67933655
-8.03301239 4.75736570 67.69386292
-3.81976604 4.72245312 67.62500763
-2.68152237 4.77104378 67.65782166
-7.33967686 4.81835508 67.67500305
9.78298283 4.81835508 67.67500305
-6.41175842 4.95512295 67.65000916
1.03982353 4.99343109 67.64044952
8.45544815 4.96192980 67.67613983
-15.55512047 5.01350021 67.67820740
-8.59778309 5.02849579 67.69397736
-0.12039400 5.04938221 67.67500305
0.37902260 5.02606964 67.67140961
3.90633011 5.04513550 67.69629669
6.17106104 5.00132799 67.65000153
7.77360153 5.00915861 67.66171265
9.22424412 5.04751682 67.65000153
-3.51443100 5.10394096 67.62252808
4.28105068 5.14892960 67.61440277
-15.17165375 5.23680115 67.67150879
-14.01786804 5.25762177 67.68786621
-2.05429077 5.25112152 67.69657898
2.49418259 5.26373434 67.60864258
5.06268215 5.28040886 67.67500305
-13.21799564 5.35623932 67.65405273
7.65422010 5.37281895 67.67500305
8.42463303 5.36295223 67.69432068
-6.89869308 5.48336792 67.67559814
2.83089066 5.40218496 67.63357544
-14.92483521 5.52319336 67.63902283
6.17334080 5.55764103 67.67500305
6.54356098 5.55764103 67.67500305
-4.15406799 5.64623737 67.68132019
-3.03937912 5.73927164 67.68231964
-6.32157278 5.83487320 67.67500305
-3.76227570 5.81538010 67.66365814
7.74391317 5.83271790 67.65000153
-5.02394819 5.92509508 67.65000153
3.62977219 5.94904613 67.64303589
6.06158590 5.92578983 67.66767883
0.52636719 6.00564337 67.69302368
8.11699390 6.01969481 67.67500305
8.57976913 6.01969481 67.67500305
9.04254436 6.01969481 67.67500305
-6.55884123 6.14917374 67.64643860
-4.12401199 6.12761211 67.66952515
-5.02580500 6.38933802 67.67500305
-5.94618273 6.56351709 67.65523529
-7.23410797 6.63901091 67.69564056
-6.60998535 6.63596916 67.68939972
-4.32410955 6.65971756 67.65257263
-7.50261688 6.98369837 67.67115784
-6.35157061 6.95550537 67.63711548
-8.03447056 7.10487366 67.63169098
-3.95998383 7.10833740 67.64996338
-5.43560791 7.34770966 67.66700745
-5.80984306 7.87143707 67.66757202
-1.88171399 0.66084599 67.77500153
3.58577299 0.75311500 67.75000000
-3.34319305 0.83189297 67.79148865
-2.25248098 1.03103495 67.77500153
-5.34855270 1.28796959 67.77612305
-4.99411392 1.30628443 67.73362732
-4.57363510 1.43095589 67.75425720
-4.14677048 1.46073532 67.78054810
-0.73794937 1.47943223 67.77360535
-0.09607697 1.45995975 67.78648376
0.62096202 1.49377203 67.77500153
2.70672226 1.47022748 67.76248169
-1.28133774 1.54203606 67.75375366
3.12363791 1.58631897 67.77500153
-9.02688217 1.60854769 67.76037598
-3.72718048 1.68264914 67.79052734
0.29413223 1.63714957 67.74813843
1.55536270 1.69238210 67.78451538
3.48621368 1.62986159 67.76495361
-4.39311600 1.73584032 67.79483032
-10.32659054 1.88739920 67.78731537
-1.73904037 1.89380145 67.74197388
-1.13976002 1.86327302 67.75000000
-0.21310601 1.86258554 67.72500610
2.25725555 1.86987638 67.78061676
5.71900511 1.86396098 67.77500153
-5.91775894 1.91820860 67.77841949
1.73262298 2.04830003 67.75000000
5.39915466 2.09042835 67.73160553
-6.36054611 2.17244387 67.78220367
-2.06571960 2.18639517 67.79070282
0.42935327 2.13178372 67.73880005
-2.71493697 2.23332596 67.75000000
-1.64937544 2.23332596 67.75000000
-1.13933897 2.23250198 67.72500610
-6.99628830 2.31541872 67.78308105
-0.20986176 2.31593275 67.79985046
2.01518917 2.32749557 67.77362061
-4.26487732 2.47494149 67.75842285
2.98801422 2.47493267 67.78565979
-5.81943893 2.59462500 67.79649353
0.20803070 2.54412794 67.77743530
-7.88476563 2.71653748 67.76409912
-0.15304565 2.71168280 67.70442200
2.38034701 2.87985492 67.72500610
-10.15379906 2.99537659 67.75679779
-7.06088257 2.99010968 67.73799133
-5.44400787 2.92398143 67.79937744
-5.03137398 2.97343111 67.75000000
-4.38277197 3.06594396 67.75000000
-2.81200027 3.00689387 67.75164795
-1.61511993 3.05143285 67.77284241
5.43235016 3.08219242 67.74667358
-6.06570816 3.25094509 67.71578979
-10.97810555 3.38344574 67.77742004
-7.35880280 3.32375002 67.77825928
-2.27142715 3.37232852 67.74441528
-0.45817021 3.36143637 67.75790405
5.96749115 3.35276508 67.73842621
6.52333832 3.32418346 67.74010468
-11.46611977 3.52752686 67.79905701
-1.48022461 3.52960944 67.79740906
4.56985092 3.58478284 67.75665283
-3.08329010 3.61835098 67.70000458
0.62073302 3.62102294 67.75000000
-13.98458385 3.78708649 67.79154205
-6.70168209 3.71490693 67.77500153
-2.38378143 3.76603627 67.70199585
-10.94747829 3.85322571 67.78678894
-6.23592186 3.80605006 67.75000000
1.17711198 3.80745506 67.77500153
-7.02565002 3.90781426 67.71426392
-2.99180508 3.98960304 67.72500610
-0.56290871 4.06842518 67.73964691
0.31988144 4.09937954 67.72702026
8.87052155 4.08509588 67.77500153
-7.72920227 4.15322399 67.78500366
-10.19757748 4.27851868 67.77767944
-2.62227893 4.26861620 67.75000000
-2.22693682 4.25685501 67.74141693
1.63935995 4.26704121 67.72500610
-11.00971127 4.32185364 67.78630066
4.61653709 4.35168648 67.71078491
9.70474720 4.36273909 67.77500153
-11.30714321 4.51813507 67.72043610
-6.23822308 4.54783297 67.77500153
-1.76184893 4.62237597 67.76804352
-14.24927616 4.75900269 67.76319122
-2.14404678 4.73038197 67.77357483
-1.43615246 4.75747871 67.76387787
-0.86178702 4.73118210 67.75000000
2.16502213 4.72229719 67.76208496
4.68792343 4.75512505 67.78066254
7.24838018 4.74237728 67.73685455
1.44308722 4.86029863 67.75940704
6.46053791 4.82547522 67.77500153
-13.27521515 4.94114685 67.76027679
5.06829309 4.91620779 67.75000000
8.87057877 4.90932178 67.76340485
3.44936991 5.05395985 67.74015808
-13.65322590 5.13177490 67.74798584
-8.05053616 5.14838362 67.73407745
-1.33404350 5.10987091 67.78862000
-0.84144211 5.11956787 67.73604584
-0.46290207 5.17568970 67.76091003
0.73256302 5.11768627 67.78378296
1.74758530 5.11021566 67.75642395
7.19543076 5.19087315 67.71250916
9.73083782 5.16227102 67.74166870
5.78061295 5.27202368 67.75777435
-8.47260761 5.37158203 67.73500061
-2.82360935 5.39385223 67.74279785
0.06478800 5.37877417 67.75000000
2.04943848 5.34356642 67.75054932
3.23699594 5.33256292 67.76461029
8.77383423 5.33933258 67.74684906
9.14522171 5.37877464 67.75000000
4.55917358 5.48114347 67.79171753
-14.58472061 5.55660248 67.75713348
-3.46215391 5.52698231 67.75635529
-7.81966782 5.63766623 67.77110291
-2.54229546 5.61512756 67.77636719
4.23437500 5.65631294 67.75000000
5.41028214 5.65512419 67.70056152
0.17966461 5.78017092 67.78630066
3.08068466 5.74773741 67.70907593
4.96545792 5.82004738 67.79799652
-7.62235069 5.96743870 67.72190857
-3.39020824 5.91051579 67.73645020
5.65699387 5.92033672 67.77232361
7.16413975 5.93471050 67.76357269
-8.09914780 6.07269526 67.72889709
-6.88706493 6.02859020 67.77500153
-7.24476099 6.16401529 67.76203918
7.48014688 6.12113714 67.77500153
-3.17538834 6.20557404 67.79811859
6.14443970 6.26649618 67.75822449
9.33398056 6.21368504 67.77500153
7.19543076 6.34663868 67.71250916
8.77783108 6.30623198 67.77500153
-7.96339798 6.46579504 67.73143005
-3.71034241 6.43845367 67.79854584
-5.49263382 6.57901716 67.72500610
-6.81962585 6.93930817 67.78012085
7.01410007 6.95149803 67.75000000
-7.13565445 7.23714113 67.78904724
-6.81990433 7.39892578 67.78355408
-4.73569250 7.36837769 67.73611450
-5.02052593 7.62714767 67.72869110
-4.36060715 7.96664762 67.79714966
-1.51317596 0.56913698 67.87500000
-1.60423005 0.93883401 67.80000305
-3.10751343 1.14624310 67.88281250
2.19514465 1.15900517 67.88447571
2.84976101 1.12523997 67.87500000
3.49956012 1.12523997 67.87500000
-1.87946105 1.21952200 67.83538818
-10.48675156 1.33946085 67.89025116
0.99282598 1.31012499 67.85000610
-2.25143242 1.48849583 67.83389282
1.91506577 1.44993973 67.89284515
2.36825132 1.48545551 67.87692261
3.77665401 1.44908297 67.85000610
-5.70845413 1.56044436 67.87200928
4.15524292 1.51949692 67.83906555
4.58100891 1.59733868 67.86174011
-9.55870056 1.67283487 67.84661865
-3.36561966 1.61801577 67.88415527
-3.00186157 1.64480472 67.87753296
-9.87272644 1.83995008 67.89877319
-8.68219757 1.82859182 67.86824799
-6.27485275 1.80917311 67.88354492
-4.06926155 1.85964680 67.84912872
-2.07955933 1.81090450 67.85168457
-0.67697102 1.86464798 67.80000305
2.66052103 1.83341503 67.84913635
-3.21191406 1.94694018 67.89726257
-8.92555237 2.08910418 67.86511993
-8.16243362 2.05409384 67.89089203
-5.37099075 2.06125021 67.87030029
1.17166460 2.04822230 67.84180450
-4.57139587 2.18983316 67.83680725
-3.83388805 2.14476299 67.87500000
-8.53075409 2.21373224 67.89131927
4.43203068 2.23612309 67.84378052
-10.97285843 2.39300203 67.85407257
-9.18345642 2.35163760 67.82557678
-7.79804611 2.35952139 67.87236786
-6.65156937 2.35117006 67.87944031
-3.09012198 2.32927203 67.85000610
2.37041092 2.31845498 67.88838959
4.05503702 2.32927203 67.85000610
5.80883026 2.37132311 67.88331604
-7.28578186 2.49159241 67.87568665
-5.26573944 2.41426301 67.80616760
-2.42702556 2.41480064 67.85682678
-0.67747098 2.42192197 67.85000610
1.64299095 2.42281389 67.87500000
5.25942326 2.42102957 67.82500458
-11.52965164 2.53444719 67.88650513
-9.46286392 2.57238221 67.87016296
-3.92671609 2.51549792 67.87500000
-1.74853134 2.57609224 67.86204529
0.57904053 2.57817793 67.85133362
-8.75379562 2.60818195 67.87500000
6.06581497 2.65692949 67.87590027
-2.53428888 2.79355001 67.87500000
-1.42034805 2.70086598 67.87500000
0.90991592 2.70647764 67.88248444
-11.98222446 2.81510210 67.89561462
1.82797396 2.88517094 67.85000610
-8.67043781 2.96934032 67.87881470
-7.50071716 2.91125655 67.88671875
-0.67772001 2.97891808 67.87500000
-6.74581909 3.08471656 67.89885712
-13.47444153 3.16541290 67.86602020
-9.27714920 3.17258501 67.85861206
4.51652145 3.17073488 67.83473206
-9.93861580 3.29521179 67.89259338
-8.89542294 3.30818939 67.89288330
-8.53739643 3.33089447 67.84103394
-1.04903400 3.34965301 67.87500000
-10.61165237 3.43627930 67.80224609
-7.82551098 3.44233704 67.87500000
-9.38054657 3.53584051 67.87191772
-12.04271507 3.67181396 67.81148529
-9.03045273 3.64243460 67.86380768
-5.87178516 3.62503195 67.82500458
-0.75705880 3.65463805 67.82743835
-10.56816387 3.78212738 67.83636475
-9.99820328 3.70980787 67.85357666
-0.41833115 3.76706147 67.88748169
-12.40966034 3.98731184 67.84465027
0.80738652 3.95137906 67.86250305
5.25942278 3.90287900 67.82500458
-1.57824707 4.02159977 67.86169434
7.85960197 4.08961678 67.85000610
-10.52840805 4.15218353 67.86468506
-9.83522797 4.14505053 67.89396667
-8.96136093 4.16153526 67.85546875
-1.23469102 4.18380690 67.87500000
-0.21349899 4.18226719 67.85000610
5.01134682 4.15254498 67.87670898
-15.25099182 4.24679184 67.85932159
-11.56203938 4.26864624 67.83773804
-0.93074036 4.37402344 67.88404846
-7.92086792 4.47882080 67.89936829
-2.95091295 4.46021557 67.85000610
-0.58489197 4.46185923 67.87500000
6.56048203 4.46021605 67.85000610
7.85960197 4.46021605 67.85000610
9.06926727 4.46185923 67.87500000
-13.51689434 4.53365326 67.87855530
-13.06266594 4.58489990 67.81932831
-9.92896271 4.52623749 67.85066986
-8.90563202 4.55976105 67.84746552
-12.36960411 4.64084053 67.86433411
-11.69824982 4.61377716 67.85202789
8.54709244 4.65738869 67.86024475
9.44904613 4.61924696 67.83708191
-7.62147903 4.72756720 67.87286377
-6.70909691 4.73816490 67.85000610
-3.45938540 4.73554659 67.81250000
-0.22489744 4.73540926 67.83094025
0.15012157 4.75943470 67.84329224
2.89937973 4.78784275 67.84716797
6.00592899 4.73991108 67.87500000
2.44407797 4.93817616 67.84774017
8.08604050 4.96462250 67.85235596
-2.95533228 5.05388308 67.83326721
-1.71986580 5.07069397 67.85618591
-14.47231770 5.18126678 67.84278870
-7.73120499 5.19006395 67.87995911
-2.50279236 5.12022543 67.82277679
1.25976563 5.17992258 67.85380554
10.08294678 5.19949722 67.82500458
-12.95788860 5.25341797 67.88419342
6.88170242 5.27883196 67.86843872
3.70368576 5.32583618 67.82489014
4.07325220 5.36877251 67.87969971
8.05195999 5.31746292 67.87944031
-6.52110481 5.47734404 67.82500458
0.45422745 5.41218567 67.89973450
1.56944656 5.41493368 67.85756683
2.57127500 5.48138189 67.87500000
9.52287579 5.47532606 67.80000305
-14.24112225 5.55291748 67.88325500
-0.60992432 5.51067019 67.86878967
7.39290524 5.56996012 67.82500458
-8.25141811 5.64083099 67.89204407
-7.40609074 5.61145020 67.88496399
8.22774506 5.66257477 67.82500458
8.97643948 5.66674900 67.87500000
-4.49468994 5.78363705 67.89701843
6.83634377 5.75519085 67.82500458
4.51984024 5.85103989 67.86250305
6.37489319 5.84996223 67.85000610
9.33742332 5.84565115 67.80000305
-2.76442266 5.94939280 67.86837769
-0.85678101 5.99327993 67.89229584
3.97357178 5.95323801 67.81015015
-4.66934299 6.13016891 67.87500000
-2.13527298 6.15920210 67.88106537
3.36823654 6.10361242 67.81709290
6.61712265 6.22335958 67.88610077
7.86249781 6.22285318 67.87500000
-8.65918255 6.39400482 67.89311218
-7.53951120 6.35516500 67.84513855
3.62382507 6.35016870 67.89923096
8.23381138 6.31553698 67.87500000
-4.65824127 6.49526310 67.88229370
-4.07125092 6.44155169 67.85945129
-6.27526188 6.53157043 67.81762695
-3.37126064 6.58696747 67.89674377
6.56289911 6.59358788 67.87500000
7.48566484 6.58873081 67.82500458
8.97643948 6.59358788 67.87500000
-8.53508759 6.76043701 67.83374023
-3.79884148 6.79763794 67.81659698
-7.98363113 6.81146193 67.84078979
-5.96894217 6.87164021 67.87500000
-4.86098480 6.84202719 67.86338806
-5.41580582 6.96900177 67.83763123
-7.67961884 7.28235292 67.88799286
-6.14209461 7.20875168 67.88568115
-5.80630112 7.30775881 67.82807159
-6.46222401 7.42423248 67.85907745
-6.14443493 7.65484619 67.89088440
-4.71347809 7.83389044 67.85174561
-2.81070304 8.81150532 67.82500458
2.57411695 0.56976599 67.95000458
3.78361201 0.56997502 67.97500610
-2.54174042 0.69257975 67.91243744
2.94692492 0.75561601 67.97500610
-1.23560095 0.84781301 67.92500305
-0.86401302 0.94056499 67.92500305
3.87657690 0.94125700 67.97500610
-3.60771179 1.02325249 67.93066406
-2.72602844 1.08118153 67.99244690
-8.87375259 1.17438364 67.94447327
-4.36933136 1.17496157 67.97273254
-3.94156265 1.20349932 67.99835968
-0.52937442 1.26038742 67.96764374
-1.49020004 1.31039977 67.92282104
-8.59883881 1.47310781 67.97069550
-2.63002038 1.43577099 67.95000458
1.27308202 1.49762905 67.95000458
5.08512497 1.49818003 67.97500610
5.45698500 1.49818003 67.97500610
5.91963291 1.59041500 67.95000458
0.54310638 1.77874994 67.96608734
-4.75796890 1.82482672 67.96621704
3.72029686 1.84368885 67.95544434
4.89739323 1.86877406 67.95000458
-9.24135399 1.95844162 67.94249725
3.12939811 1.96011698 67.90000153
-2.46241236 2.03922176 67.98700714
-1.35740280 2.06634116 67.95561981
6.04543686 2.06618261 67.96958923
-9.68665695 2.13668299 67.96865845
-7.48596191 2.19421506 67.99787903
-4.20029449 2.18018842 67.95069885
0.71549600 2.14713311 67.95000458
-10.23325253 2.27858734 67.95912170
-5.92050552 2.24154544 67.98020172
2.77982712 2.21155667 67.93540955
-4.89400864 2.30396008 67.92355347
3.52923203 2.38251162 67.94968414
4.79318237 2.31512332 67.92822266
-3.55802107 2.42459893 67.92500305
1.27932358 2.43546534 67.96044922
-8.35014343 2.53273034 67.92474365
-6.25961161 2.57370734 67.96808624
4.91921234 2.67173553 67.94629669
-1.05006421 2.76536489 67.94167328
-9.82617569 2.83168697 67.96410370
-5.88477087 2.89048600 67.97500610
-4.02546597 2.89048600 67.97500610
-11.13550186 2.93445539 67.93062592
-12.30853653 3.02385092 67.98660278
-11.70726395 3.06961298 67.94355774
6.00674820 3.05244827 67.95816040
-6.34726095 3.16778207 67.95000458
-3.74657106 3.16894698 67.97500610
-1.88726699 3.16894698 67.97500610
5.08201981 3.25039172 67.94768524
-5.41994476 3.35458803 67.97500610
-10.28426361 3.55860019 67.98867798
-6.25787735 3.53744650 67.99728394
5.35810184 3.53632212 67.90000153
-8.11295128 3.63171291 67.95000458
-2.07090998 3.62904096 67.90000153
-7.59742737 3.74132943 67.94306183
4.89493561 3.75759244 67.96389771
-8.66919327 3.85435557 67.96405029
9.83306122 3.99204326 67.99023438
-11.91278362 4.04313660 67.94172668
-9.46195698 4.05601025 67.97697449
-1.97926044 4.06421328 67.94167328
1.27308202 4.09564400 67.95000458
7.45558548 4.04963636 67.98213959
8.52483654 4.09715080 67.97500610
9.46821022 4.09537792 67.93302917
10.28928375 4.04998779 67.96250916
-8.55906773 4.18695831 67.93153381
-8.05688667 4.15607643 67.93499756
-7.39952469 4.38547277 67.98683167
0.66045380 4.37489891 67.94863892
7.30742455 4.36705494 67.96463776
-12.60320759 4.41065979 67.99146271
-9.35043335 4.45570850 67.91793823
1.38502502 4.49144316 67.99237061
1.83134198 4.46843290 67.97500610
5.25684738 4.45781136 67.97302246
10.06162643 4.44163561 67.99700165
-8.35296726 4.56491089 67.99398804
-2.44415903 4.55957603 67.95000458
6.94442892 4.56125402 67.97500610
-13.84977055 4.66954803 67.91251373
7.57320976 4.67474842 67.90650940
-12.82609463 4.78157043 67.99024963
-11.36051655 4.78722382 67.94465637
-1.14354503 4.74689388 67.97500610
0.54085708 4.75023699 67.92842865
1.04232597 4.78327179 67.96965027
-8.77738571 4.85418701 67.99262238
-0.56993884 4.82487440 67.94225311
1.85134602 4.85128832 67.96829987
4.37263012 4.86469173 67.96568298
5.38232422 4.81046391 67.99060822
-12.48397446 4.98041534 67.98435211
-12.01969337 4.93269348 67.94576263
-8.35275459 5.05464554 67.96685028
-6.90738821 5.02535486 67.97500610
7.44868469 5.01504564 67.94098663
9.47691345 5.04118347 67.95133972
-15.46534157 5.17527771 67.99930573
-11.09184837 5.15756226 67.99180603
-3.74657106 5.11817598 67.97500610
-3.35669708 5.11433983 67.98474121
2.75794792 5.11252880 67.90000153
4.77115440 5.19279480 67.94522858
6.29367304 5.11817598 67.97500610
5.36204815 5.20908022 67.95000458
-1.10739708 5.33157349 67.96199799
-15.21913147 5.45500183 67.98989868
-13.42969704 5.41367340 67.94480133
-3.74588203 5.48844862 67.96250916
-2.30075836 5.40415955 67.93309021
-1.47842026 5.44248343 67.99562073
-0.21365701 5.57611895 67.90000153
5.64291620 5.58227777 67.97500610
-13.14347553 5.66060257 67.96962738
-6.81442308 5.67509794 67.97500610
-2.08219337 5.67237091 67.99973297
1.30395508 5.65327358 67.95573425
1.85768890 5.66470480 67.97744751
2.27634382 5.68601179 67.95160675
3.67586327 5.69295502 67.90407562
-14.97048855 5.70344543 67.96411133
8.61463356 5.76579809 67.95000458
-14.28210068 5.89862823 67.99271393
7.95315361 5.84760523 67.95095825
9.64041996 5.86073923 67.97500610
-14.63582420 5.95085144 67.94705200
-8.49499035 5.93093872 67.99919891
-3.73243713 5.93344498 67.99279785
-5.29574585 6.04505253 67.93363953
4.72348404 6.14212465 67.92465210
5.85806322 6.14919949 67.95357513
-13.95641804 6.24517059 67.95463562
-1.05801773 6.28503370 67.96515656
-6.81412506 6.38093567 67.98101807
-5.68424225 6.37785816 67.94100952
-2.97528934 6.52053070 67.94679260
5.78908539 6.58410597 67.99396515
6.94187498 6.50808811 67.95000458
-7.71972275 6.63009024 67.99913788
-5.23401403 6.69612312 67.97500610
6.18281937 6.61339617 67.91633606
7.87311554 6.63343287 67.96667480
-4.17846680 6.76894379 67.97285461
-7.14519644 6.87536526 67.95731354
7.31628990 6.88176394 67.97500610
-4.52736473 6.97006321 67.95339966
6.61603546 6.99180365 67.99557495
-6.46865845 7.06614733 67.96706390
-5.12514210 7.15783405 67.99061584
-4.07261848 7.16465187 67.99566650
-8.17783928 7.27070236 67.95204926
-4.44606161 7.37923908 67.94833374
-5.27014542 7.49298048 67.97383118
-7.38008118 7.51717329 67.93363953
-4.18721008 7.62607908 67.98591614
-5.72948074 7.70025158 67.96613312
-4.31023407 8.29838371 67.97983551
-3.87985611 9.04631233 67.98502350
-1.98314500 0.29194301 68.07500458
3.41551495 0.47768101 68.05000305
-2.08700180 0.63465261 68.09063721
2.26694107 0.77190113 68.09998322
3.32366800 0.84968501 68.07500458
-1.89719391 0.93597102 68.07890320
2.57790494 0.94229603 68.05000305
-6.23047256 1.16662836 68.08641052
-0.16018677 1.18208289 68.05952454
-1.13758540 1.21405840 68.05113220
0.43734601 1.22106397 68.05000305
3.21683884 1.27865171 68.07350159
4.53232908 1.22106397 68.05000305
-9.11279678 1.45014095 68.08491516
-6.00690842 1.46205139 68.04131317
-5.18507385 1.42327929 68.08320618
-3.65576935 1.41653919 68.00871277
0.13921864 1.46018636 68.07530975
-1.86140060 1.52442324 68.03792572
-1.03483021 1.59133935 68.05821228
-0.30730900 1.59334004 68.07500458
-10.65550232 1.61612034 68.03629303
-8.30491924 1.68444002 68.00000000
-1.52396703 1.66925097 68.02796936
3.32366800 1.68629801 68.07500458
0.94028521 1.73406303 68.05910492
1.83268905 1.77794802 68.02500153
4.26817656 1.76355207 68.07443237
5.26445770 1.79299462 68.09698486
-7.75522614 1.89512777 68.04327393
0.25130299 1.96516800 68.07500458
1.43138313 1.97589314 68.06898499
-11.01319504 2.05222750 68.09449005
-5.07105255 2.00442839 68.04924011
-1.89004302 2.05812502 68.07500458
-0.99958420 2.08292341 68.01068878
-0.44688851 2.05774736 68.06250000
-11.71713257 2.18060637 68.08958435
5.18380308 2.15029192 68.05000305
5.54666138 2.18083763 68.09690094
-10.67197418 2.25799513 68.07449341
-9.94456482 2.49798059 68.08218384
-10.44505692 2.59364843 68.05491638
-5.51935577 2.53341627 68.08174133
-4.59000015 2.52291012 68.07500458
2.11334205 2.52291012 68.07500458
-10.91082382 2.69476843 68.06335449
-5.14861202 2.61586690 68.07500458
5.68597031 2.67093992 68.04568481
-6.98867798 2.79337430 68.04821777
-0.49296901 2.70584011 68.00000000
-9.48949814 2.89861822 68.04061127
-8.31407928 2.89473796 68.07500458
4.58461380 2.88275862 68.04178619
5.27784014 2.84774494 68.06250000
-10.28673935 2.93207312 68.09411621
-7.93983459 2.93455911 68.03341675
-1.33028996 3.07801223 68.01666260
6.36664581 3.13179255 68.09095764
-8.21191978 3.26296711 68.00000000
-5.89342785 3.26656604 68.07500458
-12.10216141 3.31652975 68.02289581
-11.32729053 3.34580183 68.08068848
-0.61764526 3.31894064 68.06655884
-13.64722443 3.45541334 68.07888794
-13.24081421 3.48504972 68.02340698
-6.82444811 3.45248008 68.07500458
-12.34495163 3.69272614 68.06257629
-11.70653152 3.62991953 68.07591248
-1.22017288 3.62567163 68.08405304
-9.65454865 3.73613834 68.02657318
-0.02797200 3.72724009 68.00000000
8.99958229 3.72997999 68.05000305
9.46492100 3.72997999 68.05000305
-0.96001035 3.86991048 68.05848694
5.55811501 3.82430792 68.07500458
-14.64026260 3.98325682 68.07737732
-10.23324585 3.95689392 68.02518463
-8.31407928 3.91726494 68.07500458
-6.66865921 3.99143171 68.09912109
-13.89199543 4.02105713 68.03648376
-10.93684673 4.06969976 68.06223297
-14.31343079 4.19094992 68.06956482
-11.29423237 4.19448090 68.06652832
-7.04366589 4.16867924 68.07182312
-6.26468468 4.14888668 68.06250000
6.30293083 4.19613600 68.07500458
8.16197205 4.19459391 68.05000305
0.13688278 4.22293568 68.08103943
-6.72640181 4.37883091 68.02500153
-2.14374161 4.39055777 68.06292725
-1.70258701 4.37883091 68.02500153
-10.58415413 4.42129517 68.09107208
-9.67048645 4.46292830 68.07911682
4.75476837 4.49247551 68.01194763
8.75802994 4.41127110 68.09170532
2.24075317 4.50608826 68.03119659
8.16625404 4.54745293 68.00123596
-7.19685602 4.66092110 68.07500458
-10.16732693 4.76880646 68.06372070
6.31148911 4.72031355 68.09401703
9.76531029 4.75933647 68.03955078
-9.71321964 4.82111359 68.09748077
-9.24061012 4.80078125 68.05275726
-2.27433395 4.85083580 68.08659363
-1.90316772 4.82923603 68.07620239
9.09265041 4.84505510 68.05000305
10.12011242 4.84683418 68.07500458
-11.66759968 4.95727539 68.06856537
-10.60477257 4.90086365 68.08949280
-8.03182316 4.93797684 68.05000305
-1.45323372 4.95433044 68.09521484
5.74711943 4.96111536 68.04600525
6.78820419 4.98571110 68.09106445
-13.46950912 5.02754211 68.06434631
-0.23327392 5.05765438 68.04309845
0.13275146 5.09841299 68.03929901
1.55722618 5.05958557 68.06520081
3.17280579 5.07765961 68.01550293
8.33967972 5.04865646 68.09480286
-2.06347752 5.16305447 68.08036804
2.04461288 5.16049576 68.05097961
-13.83281231 5.29428101 68.06752777
-2.81479645 5.28194141 68.09671021
7.69815063 5.26836395 68.04824829
8.94508743 5.26039886 68.05177307
-8.07336044 5.36835718 68.05443573
0.80095673 5.32010651 68.07867432
6.05296707 5.36421442 68.06052399
9.77888870 5.30102348 68.08470917
-11.82104492 5.47486877 68.04407501
-9.62441826 5.45900726 68.07526398
-3.09170532 5.49488068 68.04456329
2.93020248 5.44061279 68.05764771
3.42396808 5.47292376 68.04613495
5.06087112 5.46576214 68.00750732
6.45749664 5.47557783 68.03546906
7.10264206 5.53675222 68.04534912
