-4.06507874 2.76404738 70.26667023
-3.48703432 2.74689293 70.23750305
-5.41111183 2.98828793 70.27500153
6.98220682 3.08205509 70.22499847
7.46507597 3.08315206 70.25000763
-5.69538879 3.17794800 70.22499847
-4.25778294 3.27617097 70.27500153
6.88861704 3.46686006 70.25000763
-3.67980909 3.56278706 70.25000763
-5.60233641 3.75530910 70.26250458
-5.11913538 3.84919739 70.22500610
-4.83186817 4.32943201 70.23750305
-4.15722990 4.42297888 70.20000458
-4.54288101 4.52044678 70.22499847
7.46773195 4.52366590 70.27500153
-5.31311083 4.90576410 70.25000763
-4.93055820 4.90750980 70.27500153
7.36899900 5.09761810 70.25000763
-5.02309179 5.38348198 70.22499847
-3.67980909 5.38539886 70.25000763
7.27033520 5.38348198 70.22499847
-5.12277985 5.67519903 70.27500153
-5.21889114 5.96308184 70.27500153
-3.77722907 6.05904293 70.27500153
-5.31500101 6.34692621 70.27500153
-5.50134611 7.10702181 70.20000458
-4.63892317 7.30133820 70.22499847
-3.96733189 7.44647741 70.23750305
-4.63727093 7.68217421 70.20000458
-4.16167212 7.69038105 70.27500153
-5.41111183 7.78634310 70.27500153
-4.06411505 7.97542620 70.25000763
-6.27610922 8.07422543 70.27500153
-5.88957024 8.35913467 70.25000763
-3.39278603 8.64999199 70.27500153
-2.33390498 8.73972988 70.22499847
-1.66160905 9.12330246 70.22499847
-1.37397003 9.22247791 70.25000763
0.54775602 9.41768074 70.27500153
1.41275299 9.41768074 70.27500153
1.98941803 9.51364231 70.27500153
1.31664300 9.89748669 70.27500153
5.83384895 9.89748669 70.27500153
0.64318001 9.98278141 70.20000458
-34.37710571 -14.39601612 70.35000610
-30.03682709 -3.63561201 70.32500458
-2.05014801 -1.23575604 70.37500000
-1.76077998 -1.13925302 70.35000610
-6.37675381 -1.04281902 70.32500458
-1.66456604 -0.85106301 70.35000610
-2.24264312 -0.65916997 70.37500000
0.83698100 -0.46680900 70.35000610
-1.47266304 -0.27477899 70.37500000
-1.08767200 -0.27477899 70.37500000
1.89532804 -0.27468199 70.35000610
-2.81912589 -0.17861800 70.35000610
-2.14639497 -0.17868200 70.37500000
0.54853600 -0.17868200 70.37500000
1.12562096 -0.17861800 70.35000610
-0.41349801 -0.08249600 70.30000305
0.83698100 -0.08255500 70.35000610
-1.18349898 0.01350900 70.35000610
1.60554600 0.10949500 70.30000305
-2.14639497 0.20570900 70.37500000
-1.66456652 0.20563599 70.35000610
-0.22120900 0.20548999 70.30000305
1.89443004 0.33357766 70.31667328
-2.24184608 0.49382600 70.35000610
3.33971500 0.49400201 70.37500000
2.76222897 0.59009999 70.37500000
3.62458992 0.58947098 70.30000305
-2.81912589 0.68595302 70.35000610
-1.56779599 0.68571001 70.32500458
3.91580796 0.68595302 70.35000610
-4.07134581 0.78229499 70.37500000
-2.04942012 0.78201699 70.35000610
-0.31757900 0.78201699 70.35000610
1.41476405 0.78229499 70.37500000
3.24116302 0.87776798 70.32500458
4.20594311 0.87839198 70.37500000
-4.26232719 1.07020700 70.35000610
3.53032756 1.07001698 70.33750916
4.10823488 1.16627097 70.35000610
-3.49386096 1.26278305 70.37500000
1.02977300 1.26278305 70.37500000
-5.12642479 1.45394504 70.32500458
-4.74507904 1.45497799 70.37500000
0.16344900 1.45411670 70.33333588
-2.04942012 1.64658797 70.35000610
-0.51000601 1.64658797 70.35000610
4.68718100 1.64717305 70.37500000
5.64764881 1.64658797 70.35000610
-0.22144499 1.74327099 70.37500000
0.54853600 1.74327099 70.37500000
6.22492886 1.74265206 70.35000610
6.60860729 1.83838904 70.33750153
-4.45317078 1.93409097 70.32500458
7.08832979 1.93409097 70.32500458
-4.06990004 2.03084207 70.35000610
0.06722600 2.02939892 70.30000305
6.12653685 2.03012109 70.32500458
-3.25036192 2.12577200 70.31250000
-4.35699081 2.31820893 70.32500458
5.93206978 2.31738496 70.30000305
-2.91533995 2.75130153 70.35000610
-3.78260398 2.89644289 70.37500000
-2.62669992 2.99147701 70.35000610
-5.12824678 3.18360400 70.35000610
7.47835922 3.37693095 70.37500000
-5.70349884 3.47056103 70.32500458
-4.45475388 3.56785798 70.35000610
7.57191610 3.66392207 70.35000610
-4.83960676 3.85604906 70.35000610
-5.51505899 4.04961395 70.37500000
7.47835922 4.04961395 70.37500000
-5.22446108 4.14423895 70.35000610
-5.22446108 4.52849293 70.35000610
-4.55258417 5.20278597 70.37500000
-3.58883309 5.77731895 70.35000610
7.08832979 5.77526617 70.32500458
-4.83960676 5.96944618 70.35000610
-4.07134581 6.16376305 70.37500000
-4.83616686 6.44517899 70.30000305
-4.26081181 6.44747210 70.32500458
-3.39520001 6.44747210 70.32500458
-5.51505899 6.54815292 70.37500000
-3.78260398 6.74034786 70.37500000
-5.12460184 7.02115107 70.30000305
-3.97509909 7.02864122 70.37500000
-5.80380201 7.41303205 70.37500000
-4.93231201 7.69311714 70.30000305
-5.90005016 7.79742193 70.37500000
-5.22631693 8.08571529 70.37500000
-4.74170780 8.07997036 70.32500458
-4.45475388 8.27497005 70.35000610
-3.49386096 8.27791023 70.37500000
-3.97509909 8.37400818 70.37500000
-5.60532713 8.55707359 70.30000305
-5.12642479 8.56011772 70.32500458
-3.01155305 8.56315994 70.35000610
-1.95389998 9.04669094 70.37500000
1.12582099 9.52548790 70.36250305
1.60725904 9.62327766 70.37500000
2.28018093 9.71592236 70.35000610
-1.18560195 -1.14127696 70.47500610
-6.67713785 -0.65987200 70.45000458
-0.89613098 -0.65987200 70.45000458
-2.53498292 -0.56387198 70.47500610
2.85949206 -0.17874500 70.40000916
3.82638192 0.01353300 70.47500610
-2.62949991 0.10968900 70.42500305
-0.89644903 0.10976700 70.47500610
1.32038999 0.10976700 70.47500610
-1.37837100 0.20600100 70.47500610
0.74129403 0.20578200 70.40000916
2.95839810 0.35029900 70.46250916
1.03123701 0.49470401 70.47500610
1.51315796 0.49470401 70.47500610
4.11553478 0.49470401 70.47500610
2.18707204 0.68692899 70.45000458
-4.55905294 0.78340602 70.47500610
-3.11107993 0.78285098 70.42500305
1.70592701 0.87964100 70.47500610
-1.57058203 0.97552902 70.45000458
-0.89613098 0.97552902 70.45000458
-3.98074794 1.07210898 70.47500610
-2.24423599 1.07134795 70.42500305
-0.60729700 1.07210898 70.47500610
0.45293099 1.07210898 70.47500610
1.32038999 1.07210898 70.47500610
5.17576218 1.07210898 70.47500610
-3.20853400 1.16792905 70.45000458
5.56129980 1.16834295 70.47500610
-5.71363688 1.26412904 70.45000458
-5.32823706 1.26412904 70.45000458
-4.46266890 1.26457798 70.47500610
-0.99248201 1.26412904 70.45000458
-3.78529096 1.35984600 70.42500305
4.88660908 1.36081195 70.47500610
5.26840591 1.35984600 70.42500305
-2.43773293 1.45652902 70.45000458
0.45293099 1.45704603 70.47500610
4.30677509 1.45652902 70.45000458
-5.80998802 1.55272901 70.45000458
-4.84476709 1.74451005 70.42500305
-4.26989985 1.74574804 70.47500610
0.06739400 1.74574804 70.47500610
-5.61928082 1.84198296 70.47500610
-2.63136697 1.93821704 70.47500610
-1.95459497 1.93615401 70.40000916
-5.13553715 2.03372908 70.45000458
-4.74676514 2.03228593 70.40000916
-3.69159389 2.03445101 70.47500610
-2.72775102 2.22691894 70.47500610
-2.24503303 2.22612906 70.45000458
6.61917782 2.22612906 70.45000458
-4.84820700 2.32315302 70.47500610
6.22935390 2.32068110 70.40000916
-5.23374319 2.41938806 70.47500610
6.52514315 2.51562190 70.47500610
-4.36473608 2.61092901 70.45000458
-2.63136697 2.61185598 70.47500610
7.38997793 2.70712900 70.45000458
-4.26838493 2.99572992 70.45000458
6.81066990 2.94708157 70.43750763
7.67902899 2.99572992 70.45000458
-3.49634290 3.09083295 70.42500305
-5.90843391 3.18926096 70.47500610
-3.97933507 3.18812895 70.45000458
7.76986122 3.28199911 70.40000916
-3.59521008 3.38173008 70.47500610
-5.03918600 3.57293010 70.45000458
-4.55581903 4.05249214 70.42500305
-4.36473608 4.34252977 70.45000458
-4.74929285 4.63030863 70.43750000
-4.36163807 4.72397614 70.40000916
-4.07279301 5.01237106 70.40000916
-5.33012819 5.11394501 70.47500610
-3.78529096 5.11031723 70.42500305
-5.04097509 5.21017885 70.47500610
-4.17351580 5.30641317 70.47500610
-4.74929285 5.44785547 70.43750000
-5.42651176 5.69134998 70.47500610
-4.46266890 5.78758478 70.47500610
-3.30253911 5.87755680 70.40000916
-5.52191687 5.97899199 70.46250916
-4.55743599 6.07413101 70.45000458
-3.01476407 6.07197618 70.42500305
-5.03918600 6.17033100 70.45000458
-3.59521008 6.26875496 70.47500610
-4.55581903 6.45663977 70.42500305
-3.97933507 6.45893097 70.45000458
-5.13189220 6.64661217 70.40000916
-5.52093697 6.84373093 70.45000458
6.61682892 7.03363514 70.42500305
-5.04097509 7.32733202 70.47500610
-4.46108580 7.90193176 70.45000458
-5.52289677 8.00097084 70.47500610
-5.90633821 8.67153263 70.45000458
-2.63043404 8.76773262 70.45000458
-3.10997605 8.85764217 70.40000916
-2.24343991 9.14603806 70.40000916
-1.37837100 9.44448376 70.47500610
-0.99248201 9.82593346 70.45000458
1.99507999 9.82942104 70.47500610
-0.70293200 9.91509247 70.40000916
-1.86161196 -1.43099403 70.52500153
-6.58545923 -1.23794997 70.50000763
-3.50378990 -1.14289701 70.57500458
-0.89740300 -1.04615498 70.55000305
-1.95737100 -0.85287702 70.50000763
-6.30066776 -0.75714499 70.55000305
1.32085800 -0.75660902 70.50000763
0.74313700 -0.66104299 70.57500458
1.61125600 -0.66080898 70.55000305
-2.92466402 -0.56467199 70.57500458
-1.76515996 -0.56427199 70.52500153
-1.38032699 -0.56467199 70.57500458
-0.70442998 -0.37179899 70.55000305
1.51476896 -0.37179899 70.55000305
-3.50378990 -0.27555999 70.57500458
-3.02118492 -0.27555999 70.57500458
-2.53857994 -0.27555999 70.57500458
-1.86293197 -0.17918900 70.57500458
0.16395199 -0.17912599 70.55000305
-3.40726900 0.01355200 70.57500458
1.80486906 0.10992300 70.57500458
3.25153303 0.20622100 70.55000305
-2.82764196 0.35077876 70.56250000
-1.08960402 0.39861101 70.50000763
-1.47684801 0.49540600 70.57500458
0.26034701 0.49505499 70.52500153
-1.76578498 0.59156698 70.55000305
-3.50378990 0.78451800 70.57500458
-1.28335094 0.78424001 70.55000305
-0.60815799 0.78451800 70.57500458
0.93617898 0.78451800 70.57500458
3.44572711 0.78451800 70.57500458
-1.86293197 0.88088900 70.57500458
4.50745916 0.88088900 70.57500458
-0.12541901 0.97622102 70.50000763
3.82773900 0.97622102 70.50000763
0.16401000 1.17000103 70.57500458
3.15392804 1.16917205 70.52500153
4.41093779 1.17000103 70.57500458
-4.94985199 1.26592302 70.55000305
-2.92362809 1.26592302 70.55000305
0.74287403 1.26592302 70.55000305
5.85875416 1.26637197 70.57500458
-3.98639607 1.55548406 70.57500458
-5.33580017 1.65126896 70.55000305
-4.56390476 1.65126896 70.55000305
5.37043524 1.65009904 70.50000763
-3.59903598 1.74760604 70.55000305
5.76223278 1.84459603 70.57500458
6.33911324 2.03661609 70.55000305
-5.43421221 2.13370800 70.57500458
-4.46741819 2.13295197 70.55000305
5.66169786 2.13219690 70.52500153
6.92048597 2.32645011 70.57500458
-3.98357105 2.42110395 70.52500153
-3.54953432 2.51740694 70.52500153
-4.66204309 2.61556196 70.57500458
7.01452112 2.61463594 70.55000305
-5.33580017 2.71097207 70.55000305
-5.62525988 2.99998212 70.55000305
7.10848808 2.93472862 70.52500153
7.40309095 3.09741592 70.57500458
-4.46741819 3.28899193 70.55000305
-4.75856400 3.48289895 70.57500458
-5.91472101 3.57800198 70.55000305
-5.53073311 3.77201104 70.57500458
-5.43132496 4.34792423 70.53750610
-4.75687790 4.34869385 70.55000305
7.59075117 4.34715319 70.52500153
-5.33769083 4.73571920 70.57500458
7.58806086 4.73068619 70.50000763
-4.75856400 4.92846012 70.57500458
-6.39942312 5.31394291 70.57500458
7.39522409 5.30829620 70.50000763
-4.17647696 5.69538784 70.52500153
-3.30840302 6.17689991 70.52500153
-5.62127399 6.27097893 70.50000763
-5.91681814 7.14498711 70.57500458
-5.53073311 7.14498711 70.57500458
-6.10553122 7.42883301 70.52500153
-5.43421221 7.43409920 70.57500458
-4.75687790 7.62413788 70.55000305
-4.17647696 8.10294914 70.52500153
-4.94985199 8.20215893 70.55000305
-3.40726900 8.49417782 70.57500458
-6.20198298 8.77706623 70.52500153
6.62857389 8.78017807 70.55000305
-2.34470701 8.87651443 70.55000305
-1.66929901 9.16552353 70.55000305
0.54951000 9.64037037 70.50000763
0.83906299 9.74009132 70.52500153
1.32179499 9.74354362 70.55000305
0.55009502 9.93973923 70.57500458
1.61125600 9.93621731 70.55000305
2.48051596 9.93973923 70.57500458
-3.21878099 -1.14451599 70.67500305
-3.40968299 -0.85438901 70.62500000
-3.31543899 -0.56547201 70.67500305
-2.15478301 -0.56527197 70.65000916
1.90273702 -0.46863300 70.62500000
0.93717402 -0.37232599 70.65000916
-0.31882101 -0.17931600 70.62500000
-1.28562498 -0.08293600 70.67500305
1.51718450 -0.08292150 70.66250610
3.15840006 -0.08287700 70.62500000
-3.70207000 0.01357100 70.67500305
-2.92725420 0.01356450 70.63750458
-1.57476199 0.01356400 70.63750458
2.19405699 0.01357100 70.67500305
3.54726696 0.01357100 70.67500305
-0.41526300 0.20636700 70.60000610
2.58068895 0.20658600 70.67500305
-3.31543899 0.35134649 70.67500305
-1.96049404 0.35104501 70.61250305
-0.70542800 0.39945900 70.65000916
-4.37712717 0.59240502 70.65000916
-3.02439594 0.59240502 70.65000916
4.41718817 0.59261501 70.67500305
-0.99529898 0.68887901 70.65000916
0.35743201 0.78535199 70.65000916
4.12721395 0.78562999 70.67500305
5.28710794 0.78562999 70.67500305
-5.24859619 0.88213700 70.67500305
-5.73188496 0.97864401 70.67500305
-4.37557793 0.97795200 70.62500000
-3.12212396 0.97864401 70.67500305
-4.66369486 1.07401097 70.60000610
-3.60158706 1.07401097 70.60000610
1.03416300 1.17165899 70.67500305
4.70549583 1.17124403 70.65000916
-2.63883400 1.26816595 70.67500305
3.73925996 1.26771796 70.65000916
-4.66864920 1.36467302 70.67500305
6.35034513 1.36467302 70.67500305
5.57708216 1.46118104 70.67500305
0.74418998 1.55768800 70.67500305
-2.25061011 1.65302503 70.62500000
6.72982597 1.74884498 70.60000610
-3.99063206 1.84655702 70.65000916
-2.34803009 1.94303000 70.65000916
-5.63522720 2.52276111 70.67500305
7.69537878 2.61648893 70.60000610
-5.92520094 2.90879011 70.67500305
-4.95862198 3.19831204 70.67500305
7.98787212 3.14781284 70.62500763
-6.11851692 3.29481912 70.67500305
-5.63123989 3.48536611 70.62500000
-5.05528021 4.83893585 70.67500305
-5.53856993 5.22496510 70.67500305
-5.82854319 5.41798019 70.67500305
-5.24673986 5.51253700 70.65000916
-5.92310476 5.70548296 70.65000916
-4.28201818 5.99702406 70.67500305
-3.89538693 6.19003820 70.67500305
-4.37557793 6.28209782 70.62500000
-5.82854319 6.47955990 70.67500305
-5.34336281 6.57374096 70.65000916
6.83000755 6.66903400 70.63750458
-5.82854319 6.86558914 70.67500305
-5.24859619 6.86558914 70.67500305
-5.73188496 7.63764715 70.67500305
-5.15193796 7.63764715 70.67500305
-6.11851692 7.73415518 70.67500305
-5.44191217 7.73415518 70.67500305
6.64031792 7.83066177 70.67500305
-7.47172689 7.92716980 70.67500305
-7.08258915 7.92436504 70.65000916
-5.92520094 8.02367592 70.67500305
6.54134607 8.11731052 70.65000916
-7.37506914 8.21669102 70.67500305
-6.31183195 8.21669102 70.67500305
-5.44191217 8.21669102 70.67500305
-3.79604101 8.40375614 70.62500000
6.63562012 8.40375614 70.62500000
-3.12212396 8.69922829 70.67500305
-2.05888700 8.89224243 70.67500305
-2.83014703 8.98239040 70.62500000
-1.96014702 9.26842499 70.60000610
6.34360600 9.55764008 70.60000610
-3.51247907 -1.43555999 70.75000763
-1.09385502 -1.33942294 70.77500153
-2.93295193 -0.95284802 70.77500153
-2.64163494 -0.85590202 70.75000763
1.03489494 -0.75902402 70.72500610
-5.25602198 -0.56627202 70.77500153
-0.90026498 -0.56627202 70.77500153
-0.41614500 -0.46946299 70.75000763
0.45453799 -0.46929699 70.72500610
1.22921598 -0.46962899 70.77500153
-5.35281706 -0.27634099 70.77500153
-2.25459290 -0.27624300 70.75000763
3.35751104 -0.27624300 70.75000763
-5.05885696 -0.17957000 70.72500610
-0.99635601 -0.17957000 70.72500610
-6.12717390 0.01359100 70.77500153
0.06763300 0.11015700 70.72500610
-1.09346795 0.20680501 70.75000763
1.03562701 0.20687801 70.77500153
-3.61051393 0.30352199 70.77500153
2.09888291 0.39988300 70.72500610
3.35691738 0.44822448 70.73750305
-5.15922785 0.59345400 70.77500153
-0.31938499 0.59324402 70.75000763
1.71258402 0.59324402 70.75000763
-4.09304094 0.78646302 70.75000763
-2.35218501 0.88338500 70.77500153
0.64821899 0.88307297 70.75000763
3.74587607 0.88338500 70.77500153
5.58398724 0.88322902 70.76250458
-6.03037882 0.98002899 70.77500153
-0.41599801 0.97933698 70.72500610
5.00066996 0.97933698 70.72500610
-3.99769306 1.17331696 70.77500153
0.45485899 1.17331696 70.77500153
-5.54444695 1.26951206 70.75000763
4.03625917 1.26996100 70.77500153
-4.38487101 1.46324801 70.77500153
4.80891705 1.46273100 70.75000763
4.52023220 1.55989206 70.77500153
-4.96563911 1.65653598 70.77500153
-5.64320087 1.75318003 70.77500153
7.12864685 1.84851694 70.72500610
-5.25416613 1.94578004 70.75000763
-4.86712503 1.94578004 70.75000763
-3.51372004 2.04311109 70.77500153
-4.19128180 2.13975501 70.77500153
5.87328100 2.13899899 70.75000763
-5.05706787 2.23402905 70.70000458
-3.70468998 2.33139396 70.72500610
-4.48008299 2.42882800 70.75000763
-4.18980122 2.52543807 70.75000763
7.32727623 2.52632999 70.77500153
6.45384407 2.62204790 70.75000763
6.84088612 2.81526709 70.75000763
7.23048210 2.81626201 70.77500153
7.90804291 2.81626201 70.77500153
-4.67525482 2.91290593 70.77500153
7.61766005 3.29948092 70.77500153
7.81124783 3.68605590 70.77500153
-5.83472776 3.87797403 70.75000763
-5.44768715 4.07119417 70.75000763
7.61766005 4.07263184 70.77500153
-5.73999500 4.16927624 70.77500153
-5.64320087 4.45920706 70.77500153
-5.73999500 4.84578323 70.77500153
-6.31853104 5.03729105 70.75000763
7.61496878 5.03729105 70.75000763
-5.06243277 5.13571405 70.77500153
-3.99769306 5.32900190 70.77500153
7.32727623 5.42564487 70.77500153
-6.12717390 5.52228880 70.77500153
-5.83369732 6.05063152 70.73750305
-5.35092592 6.00338697 70.75000763
-5.54640579 6.77865982 70.77500153
-6.22396898 7.16523504 70.77500153
6.74650812 7.16523504 70.77500153
-4.96563911 7.93838596 70.77500153
-4.57846022 8.03502941 70.77500153
-4.28807592 8.32496071 70.77500153
-6.02611923 8.60880661 70.72500610
-2.54457474 9.06161213 70.74166870
-2.25379705 9.28483582 70.72500610
-1.77016604 9.47798634 70.72500610
-1.28676152 9.76943970 70.73750305
-0.80290300 9.86428928 70.72500610
6.06465912 9.86428928 70.72500610
0.84174001 9.96438599 70.75000763
2.14837646 9.96614647 70.76250458
-2.06471395 -1.43809605 70.87500000
-6.71030998 -1.14654005 70.80000305
-2.06471395 -0.95419401 70.87500000
-0.80375499 -0.85650599 70.80000305
1.42481506 -0.85741401 70.87500000
-1.67698801 -0.76063299 70.87500000
-1.19191098 -0.76036501 70.85000610
-6.23276186 -0.66385299 70.87500000
-3.61434007 -0.66361898 70.85000610
0.64936399 -0.66385299 70.87500000
-5.55424309 -0.56707299 70.87500000
-2.64536905 -0.56687301 70.85000610
1.61867797 -0.56707299 70.87500000
-6.51895523 -0.46996000 70.82500458
-3.03295708 -0.47012600 70.85000610
-1.96778202 -0.47029200 70.87500000
-6.13583088 -0.37351200 70.87500000
-3.71123695 -0.37338001 70.85000610
1.71560895 -0.27673101 70.87500000
-2.74129796 -0.17982399 70.82500458
-1.77392006 -0.17995100 70.87500000
2.68208194 -0.17976101 70.80000305
-4.00334120 -0.08317100 70.87500000
0.74629599 -0.08317100 70.87500000
3.84809899 -0.08317100 70.87500000
1.81254101 0.01361000 70.87500000
-5.36038017 0.11039000 70.87500000
-4.77879095 0.20717099 70.87500000
-2.84016490 0.20717099 70.87500000
3.94224811 0.20702399 70.82500458
-6.22616720 0.30362901 70.80000305
-4.48799801 0.30395100 70.87500000
0.74603301 0.30384400 70.85000610
1.61753595 0.30373701 70.82500458
4.33275604 0.30395100 70.87500000
-1.77392006 0.49751201 70.87500000
-0.96592373 0.46514598 70.85833740
2.77891111 0.40030700 70.80000305
4.62354994 0.49751201 70.87500000
-6.03889894 0.59429199 70.87500000
-4.77879095 0.59429199 70.87500000
-3.71123695 0.59408200 70.85000610
-2.45243907 0.59429199 70.87500000
0.84233499 0.59366298 70.80000305
-5.74810600 0.69107199 70.87500000
-3.32306194 0.69070649 70.83750153
2.29719806 0.69107199 70.87500000
-2.93709612 0.78785300 70.87500000
2.58525300 0.78701901 70.80000305
-4.96739197 0.88369697 70.80000305
-4.58169508 0.88400900 70.82500458
-2.64630198 0.88463300 70.87500000
-0.02913500 0.88400900 70.82500458
4.52661896 0.88463300 70.87500000
5.88365698 0.88463300 70.87500000
-4.87400341 1.17455947 70.85000610
-4.29262114 1.17455995 70.85000610
6.07751989 1.17497396 70.87500000
-3.61561608 1.56209600 70.87500000
5.19962978 1.56044304 70.80000305
-6.13366699 1.65829098 70.85000610
-5.94196796 1.94921803 70.87500000
-5.64519405 2.14051104 70.80000305
6.75604105 2.23955894 70.87500000
-4.77373505 2.33386707 70.80000305
-5.94196796 2.62667990 70.87500000
-5.45538712 2.72250009 70.85000610
-5.16287279 2.91496396 70.82500458
7.52617884 2.91496396 70.82500458
-6.23056412 3.01273894 70.85000610
-5.74607801 3.10948491 70.85000610
-5.45538712 3.20623112 70.85000610
-5.35848904 3.49646997 70.85000610
-6.03889894 3.59448409 70.87500000
-6.32969379 4.07838583 70.87500000
-5.35848951 4.94766331 70.85000610
-6.03889894 5.04618979 70.87500000
-4.09738016 5.62290287 70.82500458
7.43455982 5.72365284 70.87500000
-3.80947804 5.82043314 70.87500000
7.23814392 6.01187277 70.85000610
-5.55424309 6.20755482 70.87500000
7.03937721 6.29766417 70.80000305
-5.84503698 7.17535782 70.87500000
-7.29643202 7.75330496 70.85000610
-5.55424309 7.94960213 70.87500000
-5.65117407 8.33672333 70.87500000
-4.77879095 8.33672333 70.87500000
-5.25973606 8.42755413 70.82500458
-3.80813503 8.62402058 70.85000610
-15.33348846 9.20125198 70.82500458
-1.48155606 9.29468155 70.80000305
-2.06325698 9.58810043 70.82500458
1.81126201 9.68481159 70.82500458
-1.77266800 9.78152370 70.82500458
1.32741594 9.78497601 70.85000610
2.58799195 9.88521004 70.87500000
-1.09539998 9.98199081 70.87500000
1.71560895 9.98199081 70.87500000
-2.94124007 -1.92471004 70.97500610
-2.45589995 -1.92471004 70.97500610
-3.32716703 -1.63280797 70.92500305
-3.13427210 -1.34273505 70.95000458
-0.80488998 -1.24497402 70.90000153
-2.74613595 -1.14897001 70.95000458
-5.36794281 -0.85862398 70.97500610
-2.35717010 -0.76117003 70.92500305
-0.51453698 -0.66478997 70.97500610
-5.85122204 -0.47079000 70.95000458
-4.97791719 -0.47079000 70.95000458
-4.59139919 -0.47095600 70.97500610
-4.20312595 -0.47095600 70.97500610
-1.29062700 -0.37390700 70.95000458
-0.70867300 -0.37403899 70.97500610
2.97781706 -0.37377501 70.92500305
0.16488200 -0.27702400 70.95000458
-5.75418806 -0.18014100 70.95000458
-4.78047800 -0.18001500 70.90000153
-4.39416409 -0.18007800 70.92500305
1.42682600 -0.18020500 70.97500610
-0.70842397 0.01362400 70.95000458
2.39497399 0.01361500 70.90000153
3.56232500 0.01362900 70.97500610
-5.85328388 0.11054600 70.97500610
-4.24866438 0.11046800 70.92500305
-5.07673883 0.20746300 70.97500610
-3.90778804 0.20724399 70.90000153
-1.87283099 0.20739000 70.95000458
-0.51453698 0.30438000 70.97500610
1.91216600 0.30438000 70.97500610
3.65681505 0.30416501 70.92500305
-5.56207991 0.44975549 70.97500610
-4.13452291 0.43319133 70.90833282
-3.13537598 0.40129700 70.97500610
-1.38766098 0.40115499 70.95000458
-0.61095899 0.59450197 70.90000153
3.56106997 0.59492099 70.95000458
4.04623890 0.59492099 70.95000458
0.55321300 0.69204801 70.97500610
-5.45923710 0.78813100 70.90000153
-3.81350994 0.88556898 70.95000458
4.24180222 0.88588101 70.97500610
-5.36794281 1.07971501 70.97500610
-3.52364898 1.07971501 70.97500610
-4.58978081 1.17621803 70.95000458
4.72547722 1.17621803 70.95000458
-6.04742002 1.37046599 70.97500610
-5.26901913 1.36998296 70.95000458
-5.75216103 1.46634901 70.92500305
6.27801991 1.46686602 70.95000458
-3.91192198 1.56429994 70.97500610
6.56912184 1.56374896 70.95000458
6.95725822 1.56374896 70.95000458
-5.36605215 1.66063201 70.95000458
5.79285002 1.75751495 70.95000458
-4.68846703 1.85505104 70.97500610
-3.81082201 1.85309100 70.90000153
6.37730122 1.85505104 70.97500610
-3.90916610 2.14428997 70.92500305
-6.04742002 2.24271894 70.97500610
6.17880821 2.33798695 70.92500305
7.05677700 2.33963609 70.97500610
-4.88088322 2.62946010 70.95000458
7.63918591 2.63038707 70.97500610
7.92759705 3.11387396 70.95000458
-5.65715408 3.40452194 70.95000458
-6.04528999 3.98581910 70.95000458
-6.24155712 4.37489080 70.97500610
-5.95035219 4.66564178 70.97500610
7.53946209 4.76088190 70.95000458
-5.75216103 5.14659882 70.92500305
-5.36416101 5.24344778 70.92500305
-5.36605215 5.72971010 70.95000458
-5.94406509 6.30655909 70.90000153
-5.94825602 6.65007973 70.95000458
-6.13799620 6.88744593 70.90000153
-5.94825602 7.47359991 70.95000458
-6.23935795 7.57048321 70.95000458
-6.33639193 7.86113119 70.95000458
-5.94615984 7.85836077 70.92500305
-5.26530600 7.85559082 70.90000153
6.66850519 8.15465260 70.97500610
6.56912184 8.44242764 70.95000458
-4.10316515 8.53630257 70.92500305
-3.32599401 8.53329277 70.90000153
-5.65715408 8.73307705 70.95000458
-6.33415890 8.82684803 70.92500305
-3.42537403 8.82995892 70.95000458
-2.84417200 8.83307076 70.97500610
-1.48364902 9.59825325 70.90000153
1.13522100 9.99255371 70.95000458
-2.84817910 -1.63626099 71.07500458
-2.36132407 -1.63568604 71.05000305
-2.45935988 -1.15099394 71.07500458
-6.24815178 -0.95655000 71.05000305
-1.48626399 -0.95621401 71.02500153
-5.76432610 -0.76278001 71.07500458
1.13642097 -0.66525799 71.02500153
-1.04934347 -0.56837296 71.03750610
-0.22356901 -0.56847298 71.05000305
0.35932899 -0.56827301 71.02500153
-3.43020201 -0.37443399 71.05000305
-1.58451605 -0.37456599 71.07500458
-0.41805699 -0.27751201 71.07500458
0.45646599 -0.27731699 71.02500153
2.01064992 -0.27731699 71.02500153
-3.13924217 -0.18042700 71.06250000
-1.00128603 -0.18045899 71.07500458
-6.34309006 -0.08334700 71.02500153
-0.32073900 0.01364300 71.05000305
1.03928494 0.01363900 71.02500153
-3.04258895 0.11070200 71.07500458
-1.29290104 0.11070200 71.07500458
0.55399197 0.11070200 71.07500458
4.53779602 0.11066300 71.05000305
2.59346890 0.30459401 71.02500153
-6.34755611 0.40186200 71.07500458
-3.43140888 0.49891600 71.07500458
-2.84767866 0.45030099 71.06250000
0.35920301 0.40143800 71.00000000
-4.49908018 0.59575999 71.05000305
-0.32073900 0.59575999 71.05000305
2.69060493 0.59555000 71.02500153
5.79897404 0.59555000 71.02500153
-5.18109703 0.69302303 71.07500458
0.06796700 0.69302303 71.07500458
6.09467077 0.79007602 71.07500458
-4.20608711 0.88650501 71.02500153
3.76175404 0.88713002 71.07500458
4.83100700 0.88713002 71.07500458
-6.05594110 0.98418301 71.07500458
0.35945600 0.98383701 71.05000305
-0.22364700 1.08123696 71.07500458
-6.34755611 1.17829001 71.07500458
6.37954712 1.17704701 71.00000000
5.85062122 1.27511954 71.06250000
-4.39881086 1.66180205 71.00000000
-5.66712093 1.76061106 71.07500458
7.16140509 1.75999200 71.05000305
-6.24595404 1.95334303 71.02500153
-5.18109703 1.95471799 71.07500458
6.09252691 2.05104995 71.05000305
-5.46693707 2.34046006 71.00000000
6.48349094 2.34293199 71.07500458
-4.40345812 2.43998599 71.07500458
7.26112986 2.73114610 71.07500458
-6.34755611 3.21641302 71.07500458
7.55274391 3.31346703 71.07500458
-5.56403923 3.69777489 71.00000000
-5.56991720 3.99284101 71.07500458
-5.85946894 4.28249502 71.05000305
-6.24815178 4.86461210 71.05000305
-6.24815178 5.25268888 71.05000305
-5.95873594 5.35159016 71.07500458
7.45291710 5.34970903 71.05000305
-6.44249392 5.54374695 71.05000305
-3.81619692 5.53984499 71.00000000
-5.95244789 5.73374796 71.00000000
-5.66114092 6.50935602 71.00000000
6.77033901 7.38451481 71.02500153
-4.30473900 7.87221098 71.05000305
-4.59786701 7.97203493 71.07500458
-6.34309006 8.35436726 71.02500153
-4.40345812 8.36024857 71.07500458
-6.05381107 8.55134773 71.05000305
-5.18109703 8.65140915 71.07500458
-3.13868999 8.84240532 71.05000305
-3.81619692 8.93313408 71.00000000
-2.74807096 9.12703514 71.00000000
-2.45849490 9.23048210 71.05000305
-1.87612998 9.33078384 71.07500458
-2.36132407 9.52154064 71.05000305
-1.19485497 9.71216011 71.02500153
-3.62709403 -1.63683701 71.10000610
-0.90535301 -1.54137301 71.17500305
-2.17079496 -0.95823300 71.17500305
-1.78142798 -0.95823300 71.17500305
-5.08925676 -0.86074102 71.15000153
1.62438798 -0.86043799 71.12500000
-4.79564810 -0.76331598 71.12500000
-4.40655518 -0.76331598 71.12500000
-2.65750289 -0.76385301 71.17500305
-4.02028704 -0.66666299 71.17500305
-2.07272506 -0.66642898 71.15000153
-1.68408704 -0.66666299 71.17500305
0.06801500 -0.66619498 71.12500000
-3.72695208 -0.56927299 71.15000153
1.82021296 -0.56947303 71.17500305
-3.14310694 -0.47211701 71.15000153
-1.87811005 -0.37496099 71.15000153
-6.54886913 -0.27780500 71.15000153
0.74919200 -0.27780500 71.15000153
3.76440001 -0.27770799 71.12500000
-0.12661999 -0.18071300 71.17500305
-3.43623710 -0.08352300 71.17500305
-1.68349504 -0.08349300 71.15000153
-4.40965319 0.01366700 71.17500305
2.01277304 0.01365300 71.10000610
3.95894599 0.11078000 71.12500000
4.83780384 0.11085700 71.17500305
-5.38306999 0.20804700 71.17500305
-3.33772206 0.20797400 71.15000153
-1.58563006 0.20790100 71.12500000
-5.96712017 0.30523801 71.17500305
-0.22380500 0.30502301 71.12500000
4.25375509 0.30523801 71.17500305
-3.92294502 0.49961799 71.17500305
0.06806300 0.40242800 71.17500305
0.74945498 0.49961799 71.17500305
4.83440590 0.45070601 71.12500000
-5.86977816 0.59680802 71.17500305
4.34651089 0.59617901 71.10000610
5.41804600 0.59638798 71.12500000
-4.70167780 0.79118800 71.17500305
-6.35648584 0.88837802 71.17500305
-5.66911507 0.88744199 71.10000610
5.80917978 0.98522198 71.15000153
-5.76838112 1.17911899 71.12500000
-5.48041201 1.27713799 71.17500305
-3.63091993 1.27713799 71.17500305
0.16523001 1.27579200 71.10000610
4.34956789 1.27668905 71.15000153
6.77748823 1.37287998 71.10000610
-6.06233120 1.66531301 71.15000153
6.78225517 1.76246905 71.15000153
-4.11762810 1.86027801 71.17500305
-5.47848701 2.05393696 71.15000153
6.87472677 2.05249310 71.10000610
-4.70167780 2.15184808 71.17500305
7.36609888 2.34540391 71.15000153
-6.25694609 2.44255996 71.15000153
-5.09104490 2.63779902 71.17500305
7.85539484 2.73498797 71.17500305
-6.25254917 2.82919407 71.10000610
-5.96292782 3.31579804 71.12500000
8.14169693 3.41292000 71.12500000
-6.25474691 3.51004100 71.12500000
7.85539484 3.80407906 71.17500305
-5.77040911 4.87145805 71.15000153
-5.57579422 5.35723686 71.15000153
-5.57775307 5.94225979 71.17500305
-5.96292782 6.03520679 71.12500000
-6.15963888 6.32879591 71.15000153
6.97932100 6.33101988 71.17500305
-6.35648584 6.91415977 71.17500305
-5.86359310 6.90687513 71.10000610
-6.44929409 7.24922895 71.12500000
-6.06233120 7.20319986 71.15000153
-7.91395283 7.59449100 71.17500305
-7.32732916 7.68897915 71.15000153
6.68259811 7.68627691 71.12500000
-6.16180277 7.98325109 71.17500305
-5.86771679 8.07760239 71.15000153
-4.99194908 8.07760239 71.15000153
-5.08568001 8.36318874 71.10000610
-4.70167780 8.46920204 71.17500305
-6.45382786 8.66358089 71.17500305
-4.40655518 8.65749454 71.12500000
-3.53357792 9.05234241 71.17500305
-2.16927004 9.14310360 71.12500000
-3.82157207 9.23697758 71.10000610
-3.53357792 9.44110107 71.17500305
1.52711403 9.92007732 71.12500000
2.89097095 9.92705154 71.17500305
6.10110188 9.92356491 71.15000153
-4.41429996 -2.71050692 71.25000000
-7.14524508 -2.61413097 71.27500153
-6.84800196 -2.51503897 71.22500610
-4.31534100 -2.41778111 71.22500610
-2.95056391 -2.22248411 71.20000458
-2.56285906 -2.22404504 71.25000000
-5.09819698 -1.83551896 71.27500153
-3.44106388 -1.83551896 71.27500153
-4.22089195 -1.73819196 71.27500153
-5.19020891 -1.54191506 71.20000458
-3.92570090 -1.54245603 71.22500610
-3.14752507 -1.54299796 71.25000000
-2.65936995 -1.44519806 71.22500610
-4.94848919 -1.34793949 71.22500610
-2.26973009 -1.34793997 71.22500610
-0.61397499 -1.34841299 71.25000000
-5.87802505 -1.15423298 71.27500153
-4.85193920 -1.05634999 71.23750305
1.13962102 -0.95890599 71.22500610
-1.19906104 -0.86225301 71.27500153
-0.41923299 -0.86225301 71.27500153
0.26311600 -0.86225301 71.27500153
0.65257102 -0.86164802 71.22500610
-6.07298183 -0.76492602 71.27500153
-0.90598899 -0.76438999 71.22500610
-6.75059223 -0.56987298 71.22500610
-5.97550297 -0.47294599 71.27500153
1.43185198 -0.47261500 71.22500610
-4.70663214 -0.37548801 71.25000000
-1.29653895 -0.37562001 71.27500153
2.30773091 -0.37522501 71.20000458
3.08998990 -0.37562001 71.27500153
-0.71166903 -0.27829301 71.27500153
-3.92432308 -0.18077600 71.20000458
1.14002097 -0.18090300 71.25000000
-5.04945803 -0.08364000 71.27500153
0.16557901 0.01368200 71.25000000
2.50424099 0.01368200 71.25000000
4.25973082 0.01368700 71.27500153
3.38123798 0.11097400 71.25000000
-3.73349905 0.20834000 71.27500153
2.79657292 0.20826700 71.25000000
3.67357111 0.20826700 71.25000000
-4.41584778 0.30566600 71.27500153
-6.17046022 0.59764600 71.27500153
-4.21941137 0.53256369 71.25000000
0.36046800 0.59743601 71.25000000
6.10967684 0.50014400 71.25000000
5.03778982 0.69472897 71.25000000
4.45156288 0.88900203 71.22500610
-3.83097792 0.98695302 71.27500153
0.06815900 0.98695302 71.27500153
5.32638311 0.98591399 71.20000458
4.94207907 1.08427894 71.27500153
-3.92845702 1.27893198 71.27500153
6.10753298 1.27803504 71.22500610
5.33199406 1.47358501 71.27500153
5.81530285 1.56981003 71.22500610
6.10753298 1.76432705 71.22500610
7.37645197 1.86223900 71.25000000
-6.26573992 2.15411592 71.25000000
-5.09462118 2.25061798 71.22500610
7.67147493 2.44685102 71.27500153
7.57134104 2.83516312 71.25000000
7.76895380 3.12813807 71.27500153
-5.97340679 3.61350298 71.25000000
-5.87802505 3.90674996 71.27500153
-6.07298183 4.19872999 71.27500153
-6.26793909 4.49070978 71.27500153
-6.56037378 4.78269005 71.27500153
-6.07298183 4.97734308 71.27500153
-6.46289587 5.07466888 71.27500153
-5.87802505 5.56130314 71.27500153
-6.16829586 5.65664387 71.25000000
7.18156290 5.85122919 71.25000000
-6.55807304 6.24039888 71.25000000
-5.68107510 6.24039888 71.25000000
-6.45836210 6.52998400 71.22500610
-6.16613197 6.62724304 71.22500610
6.78940296 7.11353397 71.22500610
-6.55922318 7.50651741 71.26249695
-6.06872082 7.50256777 71.22500610
-7.62728214 7.79434299 71.22500610
-6.65785217 7.79981422 71.27500153
6.69199419 7.98886013 71.22500610
-6.55347013 8.08327866 71.20000458
-5.38496017 8.08327866 71.20000458
-7.53515816 8.28644753 71.27500153
-5.77649117 8.37789154 71.22500610
-4.12196684 8.47812557 71.25000000
-5.48233700 8.56939983 71.20000458
-3.34358597 8.77307987 71.27500153
6.69669199 8.77307987 71.27500153
-2.65936995 9.44773388 71.22500610
1.82213104 9.93751335 71.25000000
-4.12775183 -2.61688209 71.35000610
-5.10535002 -2.42287302 71.37500000
-7.15276289 -2.22716594 71.35000610
-4.51965904 -2.22794700 71.37500000
-5.20296478 -2.13048291 71.37500000
-2.75968289 -1.93352306 71.30000305
-4.81250381 -1.83809400 71.37500000
-2.46887493 -1.74002099 71.35000610
-6.86242294 -1.54570401 71.37500000
-4.61727524 -1.44824100 71.37500000
-6.37211514 -1.35030496 71.35000610
-4.22533321 -1.35030496 71.35000610
-1.19990206 -1.34983206 71.32500458
-3.93121195 -1.25243700 71.32500458
-1.78643405 -1.25331497 71.37500000
-5.20114279 -1.15544701 71.35000610
-6.17695284 -1.05801797 71.35000610
-5.58950806 -1.05764699 71.32500458
-4.51807594 -1.05801797 71.35000610
-2.46973991 -1.05838895 71.37500000
-4.22533321 -0.96058899 71.35000610
-0.02936100 -0.96092600 71.37500000
-3.44468498 -0.76573098 71.35000610
-5.00773478 -0.66853601 71.37500000
1.04367495 -0.66806799 71.32500458
2.11817288 -0.66853601 71.37500000
0.75103402 -0.57067299 71.32500458
-0.32220599 -0.47361001 71.37500000
-5.20296478 -0.37614700 71.37500000
-4.42204380 -0.37614700 71.37500000
-3.64112306 -0.37614700 71.37500000
0.06823000 -0.37601501 71.35000610
2.80148005 -0.37614700 71.37500000
2.01949644 -0.27853751 71.33750153
-6.17695284 -0.18115699 71.35000610
-5.78662920 -0.18115699 71.35000610
-5.49581099 -0.08375700 71.37500000
-4.71158600 -0.08369900 71.32500458
3.87388897 -0.08372800 71.35000610
2.21578789 0.01370600 71.37500000
-6.36988211 0.20848601 71.32500458
-5.68506098 0.20841300 71.30000305
-4.03158283 0.20863201 71.37500000
0.45871499 0.20863201 71.37500000
5.04132605 0.30577400 71.30000305
2.21423602 0.40327600 71.32500458
4.46093798 0.40355799 71.37500000
-5.59048748 0.54945552 71.33750916
-5.10535002 0.50102103 71.37500000
-4.51965904 0.59848499 71.37500000
-0.12695399 0.54964805 71.36250305
-6.07724190 1.27982998 71.32500458
-4.51491117 1.76618505 71.30000305
6.50401497 1.76618505 71.30000305
6.99525547 1.86452496 71.33750153
6.40650177 2.05826712 71.30000305
-4.32442904 2.15789509 71.37500000
-6.17911720 2.64521098 71.37500000
-5.39630508 2.64428401 71.35000610
-6.27673197 3.22999001 71.37500000
7.57931089 3.51991200 71.32500458
-6.27673197 3.81476808 71.37500000
-6.37434721 4.10715818 71.37500000
7.67685795 4.10428095 71.32500458
-5.59342623 4.20462084 71.37500000
-6.86242294 4.98432589 71.37500000
7.57665396 4.97908878 71.30000305
-5.68904781 5.08000898 71.35000610
-6.17911720 5.27671623 71.37500000
7.48438597 5.46972513 71.35000610
-6.17911720 5.95895720 71.37500000
-5.78257418 6.53686094 71.30000305
6.99893188 6.64120007 71.37500000
-6.08150196 6.93358898 71.37500000
-6.66719294 7.22597790 71.37500000
-6.27673197 7.22597790 71.37500000
-7.54573011 7.51836777 71.37500000
-7.05765295 7.71329403 71.37500000
-6.27673197 7.71329403 71.37500000
-7.92785215 7.99727201 71.30000305
-6.96003914 8.00568390 71.37500000
-4.42049599 8.00287914 71.35000610
-4.70993614 8.19199276 71.30000305
-6.36988211 8.29226017 71.32500458
-5.00773478 8.49299908 71.37500000
-5.98388720 8.59046173 71.37500000
-3.63984799 8.78231144 71.35000610
-5.98179102 8.97716999 71.35000610
-1.88273001 9.07141972 71.32500458
-2.95781589 9.17524147 71.37500000
-2.37129402 9.36688614 71.35000610
-1.98097003 9.46431446 71.35000610
-1.68763602 9.55839252 71.32500458
-5.99227095 -3.01186609 71.47500610
-5.69702101 -2.91324711 71.45000458
-4.42823982 -2.91426611 71.47500610
-6.87203789 -2.81666589 71.47500610
-4.91699886 -2.71906710 71.47500610
-4.81924820 -2.32866812 71.47500610
-3.15746498 -2.23106790 71.47500610
-6.86963511 -2.13272190 71.45000458
-4.22977400 -2.13197589 71.42500305
-3.93948007 -1.84066904 71.47500610
-6.57878304 -1.74307001 71.47500610
-4.52282619 -1.74185002 71.42500305
-2.96196103 -1.64547002 71.47500610
-0.61526698 -1.64374304 71.40000153
-3.64622402 -1.54787004 71.47500610
-1.00692201 -1.54787004 71.47500610
-5.99227095 -1.35267103 71.47500610
-2.08219290 -1.35267103 71.47500610
-1.49463499 -1.35172498 71.42500305
-6.86963511 -1.25463200 71.45000458
0.16610201 -1.25507104 71.47500610
0.55711001 -1.25507104 71.47500610
-6.57878304 -1.15747094 71.47500610
-3.25521588 -1.15747094 71.47500610
-2.95988798 -0.96159899 71.42500305
-1.49411201 -0.96126199 71.40000153
-0.71291697 -0.96126199 71.40000153
-5.30800676 -0.86467201 71.47500610
-4.72149611 -0.86467201 71.47500610
-3.93672395 -0.86406702 71.42500305
1.63123906 -0.86406702 71.42500305
-6.28552723 -0.66947299 71.47500610
-1.39646196 -0.66877002 71.40000153
0.06830200 -0.66900498 71.42500305
-0.81113398 -0.57167298 71.45000458
-5.50351095 -0.47427401 71.47500610
1.72952795 -0.47410801 71.45000458
-6.67653513 -0.27907401 71.47500610
-4.13498402 -0.27907401 71.47500610
2.51127005 -0.27897701 71.45000458
0.75261402 -0.18147400 71.47500610
3.39072990 -0.18141100 71.45000458
-3.74135709 -0.08381600 71.42500305
-0.02940200 -0.08387500 71.47500610
3.04978466 0.11132500 71.47500610
-0.12706500 0.20877799 71.42500305
0.85036600 0.20892400 71.47500610
-4.81756210 0.59911299 71.45000458
2.51039100 0.59890401 71.42500305
4.65861416 0.69631350 71.41250610
-5.79473877 0.89181000 71.45000458
5.83571482 0.98972201 71.47500610
4.56174612 1.08656096 71.42500305
5.15145206 1.18492103 71.47500610
5.63429308 1.28117502 71.40000153
6.61541605 1.28207195 71.45000458
6.81085110 1.57476902 71.45000458
-6.28332806 1.86746597 71.45000458
7.48963118 2.15865111 71.40000153
-6.08363199 2.35364509 71.40000153
7.79075384 2.64891696 71.47500610
-6.38327885 2.84411597 71.47500610
-6.57187891 3.32861900 71.40000153
8.08118153 3.33094907 71.45000458
-5.89451885 3.42971492 71.47500610
-6.67653513 3.82011294 71.47500610
7.58728123 3.81610489 71.40000153
-6.67653513 4.21051216 71.47500610
-5.89039612 4.50016022 71.42500305
-5.59734488 4.59769201 71.42500305
-6.28112984 4.79275513 71.42500305
-6.67419910 5.28225994 71.45000458
-5.79473877 5.86765385 71.45000458
-6.67653513 5.96730614 71.47500610
7.20424223 6.06490612 71.47500610
-6.76717806 6.44853115 71.40000153
-6.67419910 6.74574423 71.45000458
-6.96978998 7.43130207 71.47500610
-7.35564899 7.91376019 71.42500305
-7.65405416 8.01690102 71.47500610
-6.67653513 8.11450005 71.47500610
-4.13498402 8.21209908 71.47500610
-5.45271015 8.30679321 71.45000458
-7.65405416 8.50489902 71.47500610
-6.67186403 8.54769707 71.42500305
-6.28332806 8.59948921 71.45000458
-4.52124310 8.59347153 71.40000153
-5.59930420 8.69705486 71.45000458
-5.30800676 8.79769802 71.47500610
-2.27769709 9.87129402 71.47500610
2.12039900 9.96540737 71.45000458
-4.13932323 -3.01502609 71.55000305
-3.74921393 -3.01607895 71.57500458
-6.09641314 -2.72192001 71.55000305
-3.84307194 -2.72001696 71.50000000
-5.80487680 -2.62513399 71.57500458
-4.33654594 -2.62513399 71.57500458
-2.96610498 -2.62513399 71.57500458
-3.94361401 -2.42881393 71.55000305
-2.67243791 -2.42966199 71.57500458
-2.86721396 -2.13570690 71.55000305
-5.02176714 -1.94098103 71.57500458
-3.64750004 -1.93894696 71.50000000
-6.88165283 -1.84324503 71.57500458
-3.25977111 -1.84324503 71.57500458
-2.67243791 -1.84324503 71.57500458
-5.31543398 -1.64777195 71.57500458
-6.29432106 -1.55003595 71.57500458
-3.35765910 -1.55003595 71.57500458
-1.79144001 -1.55003595 71.57500458
-0.42085099 -1.45179200 71.55000305
-4.92215919 -1.35408998 71.55000305
0.85155499 -1.35456300 71.57500458
-5.60714102 -1.25638795 71.55000305
-3.65132499 -1.25682700 71.57500458
-2.86721396 -1.25638795 71.55000305
-2.18070698 -1.06024206 71.50000000
-1.20368695 -1.06098402 71.55000305
-0.32277101 -1.06024206 71.50000000
0.94944400 -1.06135499 71.57500458
-3.55343699 -0.96361798 71.57500458
-6.49009800 -0.86588198 71.57500458
-5.80487680 -0.86588198 71.57500458
1.24267602 -0.76787800 71.55000305
-2.96610498 -0.67040998 71.57500458
-0.51888698 -0.67040998 71.57500458
-4.62536097 -0.57207298 71.50000000
-3.94361401 -0.57247299 71.55000305
2.41692996 -0.57247299 71.55000305
1.04733300 -0.47493699 71.57500458
-6.38551092 -0.37680599 71.50000000
-4.92215919 -0.37706900 71.55000305
0.46000001 -0.18172801 71.57500458
4.27616596 -0.18166500 71.55000305
-5.02176714 -0.08399200 71.57500458
-6.39220905 0.01374400 71.57500458
-4.43443489 0.01374400 71.57500458
2.70954704 0.11140300 71.52500153
-5.11965609 0.20921700 71.57500458
2.41692996 0.20914400 71.55000305
4.27616596 0.20914400 71.55000305
-4.63021278 0.30695301 71.57500458
0.16616000 0.30663100 71.50000000
-6.29432106 0.40468901 71.57500458
-5.80284977 0.40454799 71.55000305
5.64218378 0.69716698 71.50000000
-6.28992319 0.79507798 71.52500153
4.95941401 0.89274597 71.52500153
6.33111095 1.18616498 71.55000305
4.37096405 1.38060296 71.50000000
4.66758394 1.38156903 71.55000305
7.01854515 1.38205194 71.57500458
6.03543806 1.47875404 71.52500153
6.33111095 1.67467499 71.55000305
7.20928097 1.67409003 71.52500153
7.21432114 2.06620598 71.57500458
-6.38774300 2.26009798 71.52500153
-5.40954113 2.26009798 71.52500153
7.99463797 2.94480300 71.55000305
7.80165386 3.53224897 71.57500458
-5.90070391 3.72641897 71.55000305
-5.89864206 4.11578894 71.52500153
-6.77902508 4.50646114 71.52500153
-6.58683586 4.99742031 71.56250000
7.60321999 5.19195080 71.55000305
-6.48783207 5.58275986 71.55000305
7.41009998 5.68244600 71.57500458
-6.29432106 6.17112780 71.57500458
-6.38997698 6.55978107 71.55000305
-5.99855900 6.65748310 71.55000305
6.92065477 6.85528088 71.57500458
-6.88165283 6.95301723 71.57500458
-6.38997698 6.95058918 71.55000305
-7.76265097 7.34396315 71.57500458
-7.37109613 7.34396315 71.57500458
-7.95564890 8.22071648 71.55000305
-6.09854317 8.22358894 71.57500458
-7.07248592 8.31551170 71.52500153
-4.43288708 8.31841946 71.55000305
-4.04288006 8.51679802 71.57500458
-4.82430410 8.70922661 71.55000305
-3.45253038 8.99761581 71.51249695
-1.98721695 9.20095158 71.57500458
-1.69355094 9.29868793 71.57500458
-2.57364988 9.49084377 71.55000305
-5.81095982 -3.21491694 71.65000153
-4.53865623 -3.11816597 71.67500305
-3.46037602 -2.92242098 71.67500305
-4.63344812 -2.62696791 71.62500763
-3.55591893 -2.62696791 71.62500763
-5.02878284 -2.43305707 71.67500305
-6.49916601 -2.33518410 71.67500305
-3.65642691 -2.33518410 71.67500305
-4.44062996 -2.13943791 71.67500305
-3.94774795 -2.13794589 71.62500763
-7.18534422 -2.04156494 71.67500305
-6.59258890 -2.04014111 71.62500763
-5.32285976 -1.94369304 71.67500305
-4.34184837 -1.84549797 71.66250610
-2.18528199 -1.84517598 71.65000153
-4.83273220 -1.65007401 71.67500305
0.95077097 -1.65007401 71.67500305
-4.43908215 -1.55165994 71.65000153
-2.38209605 -1.55220103 71.67500305
0.36261800 -1.55220103 71.67500305
-6.69521618 -1.45432901 71.67500305
-4.63344812 -1.25770497 71.62500763
-4.14510822 -1.25814402 71.65000153
-2.57634807 -1.25770497 71.62500763
-1.46685362 -1.16044056 71.65833282
-6.20509005 -1.06283700 71.67500305
-5.02878284 -1.06283700 71.67500305
-6.88766241 -0.96446002 71.63750458
-4.44062996 -0.96496499 71.67500305
0.26440799 -0.96429199 71.62500763
-3.26318598 -0.76895100 71.65000153
-0.12746499 -0.76895100 71.65000153
0.85244799 -0.76895100 71.65000153
1.83236098 -0.76895100 71.65000153
-4.34260511 -0.67134601 71.67500305
2.71238804 -0.67064399 71.59999847
-6.88646078 -0.57307303 71.62500763
2.02692795 -0.47510299 71.59999847
-0.22553501 -0.37772799 71.67500305
3.20311999 -0.37746400 71.62500763
-4.53707409 -0.27975699 71.65000153
3.59620404 -0.27975699 71.65000153
2.71428204 -0.18191899 71.65000153
-5.91101313 -0.08410900 71.67500305
3.98955989 -0.08410900 71.67500305
-4.14655399 0.01376300 71.67500305
4.57771301 0.30738199 71.67500305
2.71428204 0.40511301 71.65000153
5.26022005 0.79619002 71.62500763
-6.10706377 1.09036398 71.67500305
6.04809523 1.09036398 71.67500305
5.95006895 1.77547395 71.67500305
6.53822279 1.87334704 71.67500305
6.23978996 1.96984398 71.62500763
6.72722721 2.16469693 71.59999847
-5.12680912 2.36271000 71.67500305
7.61384678 2.36188698 71.65000153
-6.30091715 2.55756402 71.65000153
-5.22483492 2.65632892 71.67500305
-6.00484705 2.85008502 71.62500763
-6.59719086 2.94994712 71.67500305
-6.69521618 3.34143806 71.67500305
-6.10706377 3.53718400 71.67500305
-6.40114021 3.73292994 71.67500305
7.71049261 4.02444172 71.63749695
-6.40114021 4.41803885 71.67500305
-6.49463177 4.70837116 71.62500763
-5.91101313 5.29889488 71.67500305
-6.88766193 5.39394379 71.63749695
-6.10280418 5.58861208 71.62500763
-6.78613281 5.68443108 71.59999847
-6.39444208 5.87997198 71.59999847
-6.00903797 5.98400402 71.67500305
-5.81095982 6.27543402 71.65000153
7.12388992 6.37327099 71.65000153
-7.38139391 6.96273088 71.67500305
-6.30311394 7.35422277 71.67500305
-7.37881994 7.64517403 71.65000153
-7.67011690 7.74031115 71.62500763
-6.49236488 7.73760891 71.59999847
-7.47159386 8.22646141 71.59999847
-6.79324198 8.33295155 71.67500305
-6.49463177 8.32713890 71.62500763
-7.37881994 8.52572346 71.65000153
-5.42088509 8.52869701 71.67500305
6.72722721 8.61754227 71.59999847
-5.81298685 8.82231522 71.67500305
-3.94636893 8.81308365 71.59999847
-5.41899395 9.01491547 71.65000153
-2.97024894 9.31167889 71.67500305
-1.49881995 9.79420662 71.62500763
-4.15233898 -3.41654491 71.77500153
-6.41006994 -3.31853509 71.77500153
-6.11345387 -3.21940398 71.75000000
-4.93763685 -3.02450705 71.77500153
-6.21158218 -2.92547894 71.75000000
-5.82109690 -2.92649794 71.77500153
-2.77613306 -2.82651806 71.72500610
-5.22847891 -2.72857690 71.72500610
-3.26887894 -2.63246989 71.77500153
-6.11451912 -2.43602705 71.76249695
-5.62281418 -2.43560290 71.75000000
-6.80272007 -2.24043298 71.77500153
-2.48185110 -2.23887205 71.72500610
-6.21158218 -2.14167690 71.75000000
-5.82109690 -2.14242291 71.77500153
-3.36352301 -2.14018393 71.69999695
-4.73800993 -1.94504905 71.72500610
-6.30641270 -1.84678602 71.71250153
-5.91926003 -1.84839499 71.77500153
-3.95601511 -1.84839499 71.77500153
-1.50195897 -1.65237606 71.77500153
0.65761000 -1.65237606 71.77500153
-6.01742220 -1.55436695 71.77500153
-5.71894884 -1.55328405 71.72500610
-2.77806807 -1.55436695 71.77500153
-3.75969005 -1.45635700 71.77500153
0.06863700 -1.45635700 71.77500153
-5.32471704 -1.35692894 71.69999695
