-11.99010468 1.19818401 72.27500153
10.93082714 1.19693995 72.20000458
-13.27510357 1.39556801 72.27500153
10.15141201 1.39556801 72.27500153
10.54679775 1.39556801 72.27500153
-12.97856426 1.69164395 72.27500153
10.43710995 1.68988895 72.20000458
11.04102707 2.48118091 72.27500153
10.84333611 2.87594891 72.27500153
11.04102707 5.63932800 72.27500153
11.13987446 5.93540382 72.27500153
3.03134799 8.39398766 72.20000458
-16.33367920 8.49845886 72.25000000
2.63911295 8.40270710 72.27500153
1.94651699 8.59711647 72.25000000
-9.21284485 8.68975735 72.20000458
-8.72214603 8.69276619 72.22500610
-8.22541046 8.68975735 72.20000458
-7.04780102 8.60009098 72.27500153
-6.74892807 8.69577408 72.25000000
5.00968504 8.69577408 72.25000000
-7.93192482 8.89001369 72.22500610
5.89694977 8.89001369 72.22500610
-12.58317947 8.99485970 72.27500153
-9.42010689 8.99485970 72.27500153
-8.23395443 8.99485970 72.27500153
-7.34433889 8.99485970 72.27500153
6.48737001 8.98552608 72.20000458
-14.15001869 9.08411598 72.20000458
-14.55506516 9.18906498 72.25000000
-12.18358040 9.28772259 72.25000000
-0.12857699 9.29093647 72.27500153
-10.89525414 9.67900467 72.22500610
-11.19158745 9.77762890 72.22500610
-15.25202370 9.88308811 72.27500153
-9.02160072 9.97832775 72.25000000
-6.94655180 9.97832775 72.25000000
0.76130098 -6.99567986 72.30000305
0.56373501 -6.40553713 72.32500458
0.96005601 -6.40996599 72.37500763
-0.22765900 -6.21016121 72.34999847
-0.72240198 -5.91377783 72.34999847
-1.71070600 -5.81096506 72.30000305
-0.12875500 -5.61933613 72.37500763
0.56392998 -5.61739397 72.34999847
-2.00873399 -5.12342215 72.34999847
-0.12875500 -5.02636290 72.37500763
0.26717600 -5.02636290 72.37500763
4.62242079 -4.92753601 72.37500763
-2.90027404 -4.82870579 72.37500763
-2.20510697 -4.82370186 72.30000305
1.65293598 -4.82870579 72.37500763
1.94988406 -4.72987795 72.37500763
5.51326609 -4.72987795 72.37500763
-1.21672499 -4.62785006 72.32500458
0.66264898 -4.62785006 72.32500458
6.50309515 -4.63104916 72.37500763
-3.79112005 -4.53221989 72.37500763
-3.09823990 -4.53221989 72.37500763
-3.39518809 -4.43339205 72.37500763
5.11380005 -4.43032885 72.32500458
6.89187622 -4.42879820 72.30000305
3.03869510 -4.33456278 72.37500763
7.19597387 -4.33456278 72.37500763
-1.31654894 -4.23573399 72.37500763
1.94853699 -4.23280811 72.32500458
-3.09823990 -4.13690615 72.37500763
-0.32660800 -4.13547707 72.34999847
-1.90846598 -4.03389311 72.30000305
4.22356892 -4.03528690 72.32500458
2.74079990 -3.93788791 72.34999847
-3.19501400 -3.83776593 72.32500458
0.66287798 -3.83909297 72.34999847
1.94988406 -3.84042001 72.37500763
6.30512810 -3.84042001 72.37500763
7.29495716 -3.84042001 72.37500763
-1.11858296 -3.64276195 72.37500763
6.54918194 -3.64087486 72.33750153
0.86077601 -3.54270911 72.34999847
1.25700402 -3.54393411 72.37500763
-3.98495102 -3.44153500 72.30000305
-3.59315395 -3.44510508 72.37500763
-2.60332608 -3.44510508 72.37500763
7.29495716 -3.44510508 72.37500763
-2.30557990 -3.34512091 72.34999847
-3.88875890 -3.14753103 72.34999847
0.56392998 -3.14753103 72.34999847
7.48515797 -3.14535594 72.30000305
-0.82106698 -3.04768300 72.32500458
-4.97375393 -2.94790411 72.30000305
-1.90978599 -2.94994211 72.34999847
-0.22750200 -2.94790411 72.30000305
-3.59067106 -2.85016298 72.32500458
-2.60332608 -2.85213304 72.37500763
-1.61293995 -2.85114789 72.34999847
-1.31518495 -2.84917808 72.30000305
7.69088793 -2.85213304 72.37500763
-5.47382689 -2.75330496 72.37500763
8.08681965 -2.65447593 72.37500763
-1.51451504 -2.55564690 72.37500763
7.78717995 -2.55476403 72.34999847
-2.70230889 -2.45681906 72.37500763
-2.10841203 -2.45681906 72.37500763
-0.52450502 -2.45597005 72.34999847
-4.68034697 -2.35717511 72.34999847
-3.58943009 -2.25681996 72.30000305
-3.19556618 -2.25799084 72.33750153
-2.50434303 -2.16033292 72.37500763
-1.51399100 -2.15958595 72.34999847
7.88885403 -2.16033292 72.37500763
-4.67711306 -2.05936790 72.30000305
-6.06772518 -1.96267498 72.37500763
-6.46365595 -1.86384702 72.37500763
8.77666664 -1.76440799 72.34999847
-4.18560410 -1.66561401 72.34999847
9.07351208 -1.66561401 72.34999847
-3.29620600 -1.56736100 72.37500763
-7.05755281 -1.36970305 72.37500763
-4.28603411 -1.36970305 72.37500763
-7.35196018 -1.07284701 72.34999847
-4.18705082 -1.07321799 72.37500763
8.97766495 -0.97438902 72.37500763
-6.85484791 -0.77619499 72.32500458
-4.08806801 -0.77673101 72.37500763
-8.44039536 -0.67766899 72.34999847
-10.11902428 -0.57867402 72.32500458
-8.24534702 -0.38141701 72.37500763
-5.36927509 -0.38102201 72.30000305
9.86510086 -0.38128501 72.34999847
-10.21793938 -0.18363300 72.32500458
-9.53212261 -0.18376000 72.37500763
-5.47193623 -0.08490200 72.34999847
-11.20708275 0.01388800 72.32500458
-7.94016218 0.01388300 72.30000305
-10.81142616 0.11264900 72.32500458
10.05604458 0.11261000 72.30000305
10.25735092 0.40893000 72.32500458
-11.21095657 0.50786602 72.34999847
10.85833931 0.50804102 72.37500763
10.46240807 1.00218403 72.37500763
-12.29939175 1.29822195 72.34999847
-13.58102989 1.59405398 72.32500458
10.46240807 1.99047101 72.37500763
10.95732117 2.18812799 72.37500763
-14.36737823 2.28458691 72.30000305
-16.65888786 5.64713097 72.37500763
-16.83938408 6.03618383 72.30000305
10.94785881 6.62968731 72.31250000
10.55409431 7.02587509 72.32500458
10.35626411 7.42091703 72.32500458
2.34338498 8.60306740 72.30000305
-7.05755281 8.90847683 72.37500763
6.19971514 8.99797153 72.30000305
-8.93050766 9.09827042 72.31250000
-6.75593281 9.00108242 72.32500458
-16.06498909 9.20496368 72.37500763
-0.72240198 9.34997368 72.34999847
8.57876873 9.49816704 72.34999847
-10.51831722 9.59696007 72.34999847
-9.91776657 9.59032822 72.30000305
7.88340282 9.59364510 72.32500458
8.18297386 9.59696007 72.34999847
-10.22500324 9.69910622 72.37500763
2.84465504 -7.50743914 72.47500610
3.14201403 -7.40847301 72.47500610
2.84269190 -7.20556784 72.42500305
0.46578500 -6.71571684 72.47500610
-1.31745803 -5.52432108 72.42500305
-0.32705900 -5.32836485 72.45000458
-3.99459696 -5.13227415 72.47500610
-2.50780296 -5.03330898 72.47500610
-1.51503801 -4.92923689 72.40000153
-0.92189002 -4.93434286 72.47500610
3.34025311 -4.83537817 72.47500610
4.32846022 -4.83204222 72.42500305
-3.30076003 -4.73641300 72.47500610
4.92616606 -4.73641300 72.47500610
-0.82220203 -4.63424778 72.42500305
1.06050205 -4.63744783 72.47500610
-4.19139004 -4.53691721 72.45000458
-2.80516195 -4.53848314 72.47500610
-1.51660705 -4.53848314 72.47500610
1.35739303 -4.53691721 72.45000458
1.65350699 -4.43492317 72.40000153
2.44648695 -4.43645477 72.42500305
4.03409004 -4.43951702 72.47500610
0.66356599 -4.33755684 72.42500305
1.06050205 -4.24158716 72.47500610
2.74364090 -4.23866081 72.42500305
-3.79242897 -4.13833523 72.40000153
1.35739303 -4.14119291 72.45000458
-0.02980300 -4.04226208 72.45000458
1.65436351 -4.04156446 72.43750000
2.44690943 -4.04156446 72.43750000
3.04289389 -3.94469094 72.47500610
0.96138299 -3.84572601 72.47500610
5.02008486 -3.84174609 72.40000153
5.71912289 -3.84572601 72.47500610
5.31897211 -3.74417591 72.42500305
-0.02979300 -3.64527893 72.42500305
3.63761091 -3.64779592 72.47500610
4.52812481 -3.64653707 72.45000458
-1.21924806 -3.35089993 72.47500610
-5.77476311 -3.24969101 72.42500305
-4.29047489 -3.25081301 72.45000458
-0.52541101 -3.25193501 72.47500610
0.86226302 -3.25193501 72.47500610
-2.60692310 -3.15296888 72.47500610
-0.02981300 -3.15296888 72.47500610
-3.09930992 -2.95198107 72.40000153
-2.30956411 -2.75710893 72.47500610
-0.82248598 -2.75615811 72.45000458
-1.12012899 -2.65814400 72.47500610
-3.79373789 -2.55741310 72.42500305
-3.39636111 -2.55653000 72.40000153
-5.28133011 -2.45936489 72.45000458
-1.21798694 -2.25994205 72.40000153
-6.96818399 -1.96538699 72.47500610
-3.79373789 -1.96403098 72.42500305
-1.02030504 -1.96403098 72.42500305
8.99006844 -1.96538699 72.47500610
-4.88667297 -1.86642206 72.47500610
8.19145775 -1.86513400 72.42500305
-6.57170582 -1.56952596 72.47500610
-3.00236511 -1.56898499 72.45000458
-6.26785517 -1.46903896 72.40000153
8.89094925 -1.37159598 72.47500610
-4.68681717 -1.27219200 72.45000458
-3.15044045 -1.27197242 72.43750000
-7.66202116 -0.97573501 72.47500610
-7.56290197 -0.57987398 72.47500610
9.57817364 -0.48057699 72.42500305
-9.94177246 -0.28297901 72.47500610
-10.63560963 -0.08504800 72.47500610
-8.25673962 -0.08504800 72.47500610
10.57233524 0.31070501 72.45000458
-10.73102570 0.40963599 72.45000458
11.25815773 0.50821698 72.40000153
-11.82504463 0.70667303 72.47500610
11.07158089 0.80563903 72.47500610
11.46805763 0.80563903 72.47500610
-12.41547775 1.00322294 72.45000458
-12.71492672 1.34970593 72.46250916
10.97056866 1.34970593 72.46250916
10.77422237 1.59736001 72.47500610
-13.90415764 1.79498100 72.46250916
-13.59511280 1.89229596 72.40000153
11.06776237 1.89360297 72.45000458
11.36893940 2.09218597 72.47500610
10.67510128 2.29011703 72.47500610
11.26981926 2.38908195 72.47500610
-14.59535694 2.48718905 72.45000458
11.07158089 2.88390803 72.47500610
11.16299438 3.17860889 72.42500305
11.26593208 3.47650003 72.45000458
11.36501789 3.77329302 72.45000458
11.36501789 4.16901684 72.45000458
11.17070103 5.25907278 72.47500610
10.96488953 6.24441385 72.42500305
10.77050591 6.84015608 72.45000458
-16.88014221 8.03009892 72.47500610
4.23086882 8.22519112 72.45000458
9.77965164 8.22519112 72.45000458
4.52968788 8.62388992 72.47500610
-16.56562424 8.71382809 72.40000153
-16.16955566 8.71382809 72.40000153
-7.95938110 8.72285557 72.47500610
-7.56290197 8.72285557 72.47500610
1.35692406 8.71683693 72.42500305
1.06050205 8.82182026 72.47500610
-13.31183720 8.92078590 72.47500610
-8.45206165 9.11557102 72.45000458
-12.41761971 9.21609211 72.46250916
6.50758600 9.21132183 72.42500305
-7.26052999 9.31021881 72.42500305
-0.42599800 9.31021881 72.42500305
7.20343208 9.61022568 72.45000458
-9.33738232 9.99904442 72.40000153
3.04604292 -7.01986980 72.55000305
-0.52577400 -6.32421589 72.52500153
0.56568402 -5.93216896 72.57500458
-0.22836700 -5.83306694 72.57500458
0.06935400 -5.82904911 72.52500153
0.76419598 -5.43665981 72.57500458
-2.21196890 -5.33388090 72.52500153
0.26791501 -5.33755779 72.57500458
-2.70977592 -5.23845720 72.57500458
-1.02241802 -5.23845720 72.57500458
-1.71662104 -5.13758516 72.55000305
1.55824697 -5.04025316 72.57500458
5.62775707 -4.94115210 72.57500458
-4.00010920 -4.84205008 72.57500458
-0.62517703 -4.84038210 72.55000305
-2.51039791 -4.74131393 72.55000305
-0.32739800 -4.73967981 72.52500153
5.22893000 -4.64224720 72.55000305
5.82627010 -4.64384699 72.57500458
7.01251078 -4.64064693 72.52500153
-1.91506505 -4.54317904 72.55000305
0.16859999 -4.54317904 72.55000305
4.33742523 -4.54474401 72.57500458
-1.12167394 -4.44564295 72.57500458
-0.42658600 -4.44258022 72.52500153
-2.21311307 -4.34579277 72.56250000
-4.49329185 -4.24451303 72.52500153
0.36704400 -4.24597597 72.55000305
3.93768501 -4.14548016 72.52500153
6.62032080 -4.14833784 72.57500458
-1.12128794 -4.04784107 72.55000305
-3.50382710 -3.95013404 72.57500458
3.34255695 -3.84837890 72.52500153
3.84114289 -3.85103202 72.57500458
4.33742523 -3.85103202 72.57500458
-3.89950800 -3.75063801 72.55000305
-4.59248114 -3.65031195 72.52500153
1.55717397 -3.65031195 72.52500153
6.12193012 -3.65157104 72.55000305
7.50586319 -3.64905405 72.50000000
0.26791501 -3.55372691 72.57500458
6.51432610 -3.35205603 72.50000000
-5.29044104 -3.25642204 72.57500458
-4.99095201 -3.25530005 72.55000305
7.11170006 -3.25417805 72.52500153
-2.31075859 -3.05558443 72.51249695
-1.31927800 -3.05611110 72.52500153
-5.68354797 -2.95707798 72.52500153
-4.39561892 -2.95809698 72.55000305
7.41437197 -2.95911598 72.57500458
7.01251078 -2.85804391 72.52500153
-4.09653997 -2.75901103 72.52500153
-3.10680103 -2.66181111 72.57500458
-1.91440499 -2.65997696 72.52500153
8.40114403 -2.65997696 72.52500153
-5.68354797 -2.46191001 72.52500153
-4.99267197 -2.46360803 72.57500458
-4.39410400 -2.36287689 72.52500153
8.10916615 -2.36450601 72.57500458
8.50033092 -2.36287689 72.52500153
-3.40457010 -2.26540399 72.57500458
-0.82362098 -2.26462412 72.55000305
-5.88192415 -2.16480994 72.52500153
-5.48328114 -2.16406393 72.50000000
-6.67772913 -2.06648898 72.55000305
-4.59564686 -1.96809900 72.57500458
-3.40222502 -1.96674299 72.52500153
-4.29787683 -1.86899698 72.57500458
9.29383469 -1.86770999 72.52500153
-6.18374777 -1.76989496 72.57500458
-6.87143421 -1.57006800 72.50000000
-7.37228394 -1.37301505 72.55000305
-3.60184193 -1.37301505 72.55000305
9.19464779 -1.37254202 72.52500153
-4.00010920 -1.27438700 72.57500458
-7.07217884 -0.97640800 72.52500153
-3.89816499 -0.97640800 72.52500153
-8.26813221 -0.77887797 72.57500458
-10.34538174 -0.38220701 72.52500153
-7.67259407 -0.28336900 72.57500458
10.38848209 -0.08513600 72.55000305
-10.35251427 0.01393600 72.57500458
-7.87110615 0.11303800 72.57500458
-12.13912868 0.70764798 72.57500458
-10.84879684 0.80675000 72.57500458
-12.03157806 1.00426102 72.52500153
11.18226147 1.10367501 72.55000305
-13.12490654 1.45013642 72.53750610
-13.33020496 1.69866598 72.57500458
10.68983078 1.89687002 72.57500458
-13.81696033 2.09363008 72.52500153
10.98381615 2.58968902 72.55000305
11.28536892 2.68968391 72.57500458
10.09429359 7.84297419 72.57500458
2.15378499 8.53668690 72.57500458
3.74059796 8.53374672 72.55000305
1.65693295 8.73188210 72.55000305
-8.66217232 8.83094978 72.55000305
5.02875185 8.82790565 72.52500153
-16.40150070 8.93001747 72.55000305
-9.45920753 8.93309402 72.57500458
-9.15512753 8.92693996 72.52500153
6.32255220 8.93309402 72.57500458
-7.56942415 9.02752876 72.53750610
6.02270699 9.02908421 72.55000305
6.81413603 9.42210674 72.52500153
-10.64294624 9.91727448 72.52500153
0.96304101 -6.82643509 72.59999847
-0.22860301 -6.43431997 72.65000153
0.66585600 -6.23805809 72.67500305
-0.72564697 -6.13882017 72.67500305
-0.92379802 -5.83708620 72.62500763
0.86404800 -5.83708620 72.62500763
-1.91836500 -5.44415092 72.67500305
-0.02987500 -5.24206591 72.62500763
-3.11001205 -5.14466715 72.65000153
-2.01775789 -5.14643717 72.67500305
0.56646299 -5.14643717 72.67500305
-3.50865507 -5.04719782 72.67500305
-1.32155097 -5.04546213 72.65000153
5.92960882 -4.94455624 72.62500763
-2.81290293 -4.84872103 72.67500305
-1.71869147 -4.84621954 72.63749695
0.46658799 -4.84371805 72.59999847
1.26091194 -4.84371805 72.59999847
3.64513993 -4.84538603 72.62500763
-3.60680699 -4.74784899 72.65000153
3.05024099 -4.64864492 72.65000153
0.86404800 -4.44870615 72.62500763
1.85857403 -4.45176792 72.67500305
6.82822895 -4.45176792 72.67500305
-3.60680699 -4.35103321 72.65000153
-3.20937109 -4.35103321 72.65000153
2.95189810 -4.25329208 72.67500305
-4.00562000 -4.15405321 72.67500305
3.25007701 -4.15405321 72.67500305
5.03741884 -4.15262413 72.65000153
5.73490477 -4.15405321 72.67500305
5.33549595 -4.05342007 72.65000153
7.31763506 -4.05063105 72.59999847
2.05735993 -3.95557690 72.67500305
-0.32784900 -3.85368609 72.62500763
1.36160803 -3.85633898 72.67500305
6.62944317 -3.85633898 72.67500305
-5.39155388 -3.65408707 72.59999847
0.66562700 -3.65660405 72.65000153
-3.11001205 -3.55739903 72.65000153
1.06342900 -3.55862308 72.67500305
-4.10501289 -3.45938492 72.67500305
7.61812878 -3.25866508 72.62500763
-4.10360098 -3.06137800 72.65000153
-1.02277005 -3.05927205 72.59999847
6.62488222 -3.06032491 72.62500763
7.92155409 -3.06243205 72.67500305
-5.29590797 -2.86297011 72.65000153
-1.42091000 -2.76376605 72.65000153
6.72189188 -2.76186395 72.59999847
7.82215977 -2.76471710 72.67500305
-4.00562000 -2.46700191 72.67500305
-2.91029191 -2.36613488 72.62500763
-1.61851299 -2.36531997 72.59999847
-6.38885593 -2.16854095 72.65000153
-4.10360098 -2.16854095 72.65000153
-1.12321997 -2.16928697 72.67500305
8.31912518 -2.16928697 72.67500305
8.50912189 -1.77050495 72.59999847
-4.00148582 -1.67136896 72.59999847
-4.40319300 -1.57385695 72.67500305
-4.79911280 -1.47411203 72.65000153
-7.08680677 -1.37538099 72.67500305
-7.67787981 -1.27526498 72.62500763
9.20732594 -1.07692504 72.62500763
-6.78162098 -0.97741801 72.59999847
9.40273666 -0.77914602 72.59999847
-10.06167412 -0.68024403 72.62500763
-8.57475281 -0.48207000 72.65000153
9.80496025 -0.48198700 72.63750458
-9.56504917 -0.38273400 72.62500763
-10.95559502 -0.18439400 72.62500763
10.00536633 -0.08525400 72.65000153
-10.86374474 0.21243200 72.67500305
10.79652119 0.21228600 72.62500763
11.14797688 0.21235900 72.65000916
-12.15585518 0.31167001 72.67500305
10.79652119 0.90647602 72.62500763
-12.65282059 1.00633800 72.67500305
-12.25524807 1.20481503 72.67500305
11.20152664 1.40329194 72.67500305
-13.64205742 1.70042098 72.65000153
11.29314423 1.79900599 72.62500763
-14.23821163 2.09723806 72.65000153
11.39443016 3.18793535 72.63750458
11.59510803 3.58530092 72.65000153
11.40031242 4.38044119 72.67500305
11.09831429 5.86699677 72.65000153
10.60151958 7.15665102 72.65000153
4.64158106 8.34997272 72.67500305
2.55168891 8.53962708 72.59999847
3.44886303 8.54845047 72.67500305
4.24254799 8.64471340 72.65000153
-8.37315273 8.74090862 72.62500763
-9.76033783 9.13444328 72.59999847
-8.67709637 9.14387894 72.67500305
-9.07154846 9.23993874 72.65000153
6.33126402 9.24311829 72.67500305
-9.77042103 9.44159508 72.67500305
-12.04402065 9.53098679 72.59999847
-10.26738644 9.54083347 72.67500305
7.52398109 9.54083347 72.67500305
-7.18372822 9.73595905 72.65000153
4.83870220 9.83516312 72.65000153
3.15502000 -7.53851509 72.77500916
2.85643005 -6.94226599 72.77500916
0.46771300 -6.64414215 72.77500916
-0.52758598 -6.54476595 72.77500916
0.06959300 -6.24664211 72.77500916
-0.22883900 -6.14304399 72.72500610
-1.92100406 -5.74976683 72.77500916
-1.52183902 -5.74581718 72.72500610
-0.02993700 -5.65039301 72.77500916
-1.22387505 -5.54910994 72.75000000
-0.52740502 -5.15174818 72.75000000
-2.31832695 -5.05240679 72.75000000
0.96503001 -4.95306587 72.75000000
4.74260521 -4.94966316 72.70000458
-1.42286599 -4.75438499 72.75000000
1.56093097 -4.75111723 72.70000458
-4.30824089 -4.65504408 72.75000000
-0.52758598 -4.65664387 72.77500916
3.94854403 -4.65344381 72.72500610
7.23574400 -4.65664387 72.77500916
-0.12946700 -4.55726910 72.77500916
1.26395202 -4.55726910 72.77500916
-0.82589197 -4.45636320 72.75000000
2.25769806 -4.35552502 72.72500610
3.85040498 -4.35702181 72.75000000
2.65554452 -4.25621796 72.72500610
4.44432306 -4.25475502 72.70000458
-0.32841301 -4.15833998 72.75000000
0.06959300 -4.15977001 72.77500916
0.66631401 -4.15691090 72.72500610
3.55069804 -4.05760479 72.72500610
4.14889193 -4.05900002 72.75000000
-4.30824089 -3.95965910 72.75000000
0.36805600 -3.95965910 72.75000000
6.13880587 -3.95965910 72.75000000
-0.02991600 -3.85899210 72.72500610
1.76039100 -3.85899210 72.72500610
5.74279690 -3.86164498 72.77500916
7.52915812 -3.85899210 72.72500610
6.53678799 -3.56229591 72.75000000
7.63386393 -3.56351995 72.77500916
-5.10420704 -3.46295500 72.75000000
7.03668499 -3.46414590 72.77500916
-4.60831213 -3.36477089 72.77500916
-0.02991600 -3.36245894 72.72500610
-3.51106906 -3.26315188 72.72500610
-0.32852599 -3.16602111 72.77500916
8.22538853 -2.96523309 72.72500610
-2.21959400 -2.86789703 72.77500916
8.52670193 -2.86691093 72.75000000
-1.02488303 -2.76757002 72.75000000
-5.50407982 -2.66914701 72.77500916
-4.40470695 -2.66639590 72.70000458
8.62619781 -2.56888890 72.75000000
-6.00172997 -2.37102199 72.77500916
-3.71126699 -2.37020802 72.75000000
-5.70313978 -2.27164698 72.77500916
-1.42286599 -2.17152596 72.75000000
8.62619781 -2.17152596 72.75000000
-3.61301208 -2.07289696 72.77500916
8.02922440 -1.97284400 72.75000000
8.82822227 -1.87414801 72.77500916
-6.99462509 -1.77416301 72.75000000
-6.39984894 -1.57602298 72.77500916
9.42216396 -1.57548201 72.75000000
10.81882000 -1.37727404 72.77500916
10.71192646 -1.07840705 72.72500610
-7.98683596 -0.78048801 72.72500610
-7.79326820 -0.48289999 72.77500916
-10.18198395 -0.28415000 72.77500916
9.52493191 -0.28415000 72.77500916
-8.08351803 -0.18458501 72.70000458
-11.17728424 0.01397500 72.77500916
10.61976147 0.01397500 72.77500916
10.52023125 0.31209901 72.77500916
-11.86991215 0.51067299 72.75000000
-10.87869453 0.51084900 72.77500916
11.01220226 0.51058549 72.73750305
-12.36739063 0.80869502 72.75000000
-11.57142639 0.80869502 72.75000000
11.40815639 1.00703096 72.72500610
-13.25373840 1.20523000 72.70000458
-12.86929226 1.30584800 72.77500916
11.00652504 1.70159197 72.70000458
-13.86459064 1.90209699 72.77500916
11.10977173 2.04973292 72.72500610
11.11359119 2.39814711 72.75000000
11.51552963 2.69709611 72.77500916
11.30869484 5.57513285 72.72500610
11.00652504 6.46667004 72.70000458
10.32117176 7.66583920 72.77500916
2.85348606 8.55139065 72.70000458
5.44420719 8.75896263 72.77500916
-8.09185696 8.95771217 72.77500916
-12.67023087 9.05708694 72.77500916
-7.28809977 9.04775238 72.70000458
-7.38752699 9.34557056 72.70000458
-0.12946700 9.35521126 72.77500916
6.53229713 9.54411507 72.70000458
-15.04860210 9.64670372 72.72500610
-7.49210310 9.65001869 72.75000000
-9.97263718 9.74266148 72.70000458
-11.17728424 9.85208607 72.77500916
6.43950605 9.85208607 72.77500916
2.85937405 -7.64576101 72.84999847
3.35638404 -7.24536514 72.82500458
3.25902200 -6.85229397 72.87500763
-0.22931100 -6.65327120 72.87500763
0.06966500 -6.55151081 72.84999847
0.36856201 -6.15360212 72.84999847
1.16602194 -5.75766802 72.87500763
0.26902199 -5.55864477 72.87500763
-2.22188091 -5.45726109 72.84999847
0.96569401 -5.45351601 72.80000305
-4.01664400 -5.35962200 72.87500763
-1.62408698 -5.35778284 72.84999847
-0.82731098 -5.26011086 72.87500763
1.26568794 -5.26011086 72.87500763
1.56361496 -5.25650215 72.82500458
-3.71764398 -5.16060019 72.87500763
-3.81731009 -4.86206484 72.87500763
-3.31897712 -4.86206484 72.87500763
5.35202122 -4.86206484 72.87500763
4.35385990 -4.76092005 72.84999847
-2.22264409 -4.66304302 72.87500763
0.56802201 -4.66304302 72.87500763
-4.01388788 -4.56040001 72.82500458
5.05302000 -4.56353092 72.87500763
6.04761219 -4.56196499 72.84999847
0.36868900 -4.36450911 72.87500763
5.35018396 -4.36301088 72.84999847
1.26525402 -4.26353407 72.84999847
-3.41629791 -4.16262722 72.82500458
-0.92666000 -4.16405582 72.84999847
1.76341605 -4.16405582 72.84999847
6.84232283 -4.16262722 72.82500458
6.44614220 -4.06457901 72.84999847
0.86702198 -3.96646309 72.87500763
-4.01664400 -3.86695099 72.87500763
-4.51342821 -3.66667008 72.84999847
1.46351397 -3.56474400 72.80000305
7.34031296 -3.46652603 72.82500458
-3.21820593 -3.16928411 72.84999847
6.84702110 -3.17037201 72.87500763
-4.61306000 -3.06980610 72.84999847
7.54209900 -3.06980610 72.84999847
-1.92298400 -2.77137494 72.84999847
-3.41864395 -2.57330298 72.87500763
-1.32428002 -2.47124600 72.80000305
-6.70534086 -2.37346601 72.84999847
9.13621807 -2.07503390 72.84999847
-6.50830889 -1.97623396 72.87500763
-3.91563296 -1.97555602 72.84999847
-7.30063009 -1.67654896 72.82500458
8.73768806 -1.57764697 72.84999847
-7.60203409 -1.47817004 72.84999847
-3.91428900 -1.47766304 72.82500458
-6.60797596 -1.27965498 72.87500763
-7.70430899 -1.08063197 72.87500763
-8.29376507 -0.98011100 72.80000305
9.63438034 -0.68235201 72.84999847
-9.59797573 -0.58307499 72.87500763
-8.79762363 -0.58287501 72.84999847
10.02946758 -0.58267498 72.82500458
-9.89357853 -0.48339701 72.84999847
-11.18880177 -0.38392001 72.84999847
-10.48417473 -0.38365701 72.80000305
10.13601971 -0.28454000 72.87500763
-10.69063854 -0.08548800 72.84999847
-11.49164200 0.01399400 72.87500763
10.92585182 0.01398400 72.82500458
-7.70166588 0.11346600 72.84999847
10.23568630 0.11350500 72.87500763
10.63070488 0.61085302 72.84999847
-11.98174858 0.80952901 72.82500458
-10.99330902 0.90959698 72.87500763
-13.78397465 1.50666499 72.87500763
-13.27652454 1.50563097 72.82500458
11.42776394 1.60562503 72.84999847
11.51948547 1.90275002 72.80000305
11.41992092 2.30038595 72.80000305
11.53135204 2.99933600 72.87500763
11.62702847 3.29673910 72.84999847
11.63101959 3.79542804 72.87500763
11.13268661 6.08418894 72.87500763
10.92960262 6.87792110 72.84999847
3.85569811 8.17112446 72.84999847
3.15935493 8.57197475 72.87500763
3.95532990 8.66851139 72.84999847
-16.65714645 8.86137962 72.80000305
1.46451902 8.86746597 72.84999847
-7.80129910 9.06641960 72.84999847
-9.59797573 9.16904354 72.87500763
-8.40197563 9.26855564 72.87500763
-12.47973919 9.36163807 72.82500458
-8.80064201 9.36806679 72.87500763
6.74735498 9.36806679 72.87500763
-10.39174175 9.76276112 72.84999847
1.36676002 -7.05857420 72.95000458
-0.03001900 -6.86169577 72.97500610
0.56880099 -6.36345577 72.97500610
-0.92825001 -6.16416121 72.97500610
0.86821198 -6.16416121 72.97500610
-1.12747002 -5.86320686 72.95000458
1.46703196 -5.66592121 72.97500610
-3.32011509 -5.36146116 72.90000153
-2.52510405 -5.36697721 72.97500610
-0.02999800 -5.36329889 72.92500305
-2.92131209 -5.16237020 72.90000153
-1.32700896 -5.16591120 72.95000458
0.76840800 -5.16768122 72.97500610
-2.62490702 -5.06803322 72.97500610
-0.32937250 -5.06716537 72.96250916
-4.12195778 -4.96838522 72.97500610
1.26742494 -4.96838522 72.97500610
3.56290388 -4.86873722 72.97500610
4.86034822 -4.86873722 72.97500610
-1.92430401 -4.76418781 72.90000153
0.06976100 -4.76745605 72.95000458
1.76644194 -4.76908922 72.97500610
-3.72019506 -4.56666183 72.92500305
2.86427999 -4.56979322 72.97500610
-2.92431808 -4.47014523 72.97500610
-2.62400794 -4.46861410 72.95000458
3.16369009 -4.47014523 72.97500610
3.66270709 -4.47014523 72.97500610
4.16029787 -4.46861410 72.95000458
-0.62883902 -4.37049723 72.97500610
-3.92235208 -4.27084923 72.97500610
-0.12982200 -4.27084923 72.97500610
0.86806297 -4.27011776 72.96250916
-3.12071395 -4.16691399 72.90000153
7.34787416 -4.16691399 72.90000153
1.16682196 -3.96918392 72.92500305
6.95383596 -3.87093091 72.95000458
-5.31777811 -3.77131701 72.95000458
-0.12982200 -3.57331300 72.97500610
0.86791402 -3.57208896 72.95000458
6.05591297 -3.37286210 72.95000458
7.85175896 -3.37286210 72.95000458
8.14827347 -3.27212596 72.92500305
-5.61515999 -3.17254591 72.92500305
-3.72019506 -3.17254591 72.92500305
-0.62883902 -3.17472196 72.97500610
8.45182228 -3.17417812 72.96250916
7.95425320 -2.97542596 72.97500610
8.75268173 -2.87577796 72.97500610
-3.92100811 -2.67556500 72.95000458
-5.71881294 -2.57683396 72.97500610
-5.01846981 -2.57595110 72.95000458
-6.41304016 -2.47548842 72.92500305
-3.02101302 -2.47463989 72.90000153
8.84641838 -2.37590909 72.92500305
-6.01203823 -2.07645798 72.90000153
-7.11606121 -1.97894597 72.97500610
9.44159126 -1.87736702 72.90000153
-3.62045908 -1.77843106 72.92500305
8.25366402 -1.77964997 72.97500610
9.04588890 -1.67885101 72.92500305
-7.31065512 -1.38011205 72.92500305
9.44159126 -1.28009295 72.90000153
-6.90934515 -1.18054795 72.90000153
9.55110741 -0.98246700 72.97500610
-10.20646954 -0.78290200 72.95000458
-7.71488190 -0.78317100 72.97500610
-9.11212921 -0.58387500 72.97500610
-8.20827007 -0.58347499 72.92500305
11.14796257 -0.48422700 72.97500610
-10.90485382 -0.38444701 72.95000458
-8.31085396 -0.28483301 72.95000458
11.14414406 -0.18521900 72.95000458
11.33979416 0.21316300 72.92500305
-11.40369987 0.31285000 72.95000458
-11.09678078 0.31263500 72.90000153
10.94835663 0.31295699 72.97500610
11.24391365 0.51207697 72.95000458
-11.40760708 0.61190099 72.97500610
-11.30393028 0.91053301 72.95000458
-12.80046844 1.01014602 72.95000458
11.44737339 1.20978796 72.97500610
-15.28945732 3.00139403 72.92500305
11.14796257 6.49113083 72.97500610
4.15744686 8.27627754 72.90000153
3.56168294 8.48118401 72.95000458
4.45807695 8.47827625 72.92500305
4.76054478 8.58373737 72.97500610
2.36283207 8.67446136 72.90000153
-8.40485859 8.87355232 72.90000153
-7.51527500 8.98232937 72.97500610
5.75463295 8.97617531 72.92500305
6.05798912 8.98232937 72.97500610
-8.81271839 9.08197689 72.97500610
-16.28680611 9.27491379 72.92500305
-9.90037060 9.27173519 72.90000153
-9.31173515 9.28127384 72.97500610
8.74968243 9.27809525 72.95000458
-7.60985994 9.37449360 72.92500305
-9.80739212 9.57693577 72.95000458
-10.11016369 9.87916183 72.97500610
-9.70429611 9.87239265 72.92500305
-9.00306320 9.96855259 72.90000153
2.36607289 -7.96054983 73.00000000
2.66741204 -7.86625195 73.05000305
2.76826501 -7.37002087 73.07500458
-0.03006000 -7.27023697 73.07500458
1.66892302 -7.07066822 73.07500458
2.06797600 -7.06824923 73.05000305
-0.32976800 -6.96849918 73.05000305
2.46844411 -6.87109900 73.07500458
1.46753502 -6.76436520 73.00000000
1.76825798 -6.76899815 73.05000305
2.16788197 -6.76899815 73.05000305
2.76542401 -6.76436520 73.00000000
-0.12995601 -6.07074499 73.05000305
1.16922200 -6.07282305 73.07500458
0.16982000 -5.97303915 73.07500458
0.56958097 -5.97303915 73.07500458
1.46853995 -5.97099495 73.05000305
-1.62798798 -5.86923599 73.02500916
-1.42873394 -5.57199383 73.05000305
1.76886296 -5.57390022 73.07500458
-3.72402000 -5.46849680 73.00000000
-0.42967400 -5.47224283 73.05000305
-1.12940204 -5.37433100 73.07500458
4.56250000 -5.06976891 73.00000000
-2.32788706 -4.97349119 73.05000305
-0.62948602 -4.87374115 73.05000305
0.86910403 -4.87374115 73.05000305
0.36970100 -4.77562380 73.07500458
-3.12820506 -4.67583990 73.07500458
-0.92920399 -4.67424107 73.05000305
1.16882205 -4.67424107 73.05000305
-3.42685294 -4.57449007 73.05000305
0.86880702 -4.57292414 73.02500916
2.56838393 -4.57605505 73.07500458
5.46477890 -4.57449007 73.05000305
1.66892302 -4.47627115 73.07500458
1.96807003 -4.47474003 73.05000305
-4.32748699 -4.37648582 73.07500458
6.16623116 -4.37648582 73.07500458
6.66593122 -4.27670193 73.07500458
5.66459084 -4.17548800 73.05000305
2.06656003 -4.07294798 73.00000000
6.06421518 -4.07573700 73.05000305
-0.12995601 -3.97598791 73.05000305
1.46853995 -3.97598791 73.05000305
6.66593122 -3.87756395 73.07500458
-5.02706909 -3.67799497 73.07500458
7.36299181 -3.67673612 73.05000305
-4.72724819 -3.57821012 73.07500458
1.16882205 -3.57698607 73.05000305
-0.42982101 -3.37864089 73.07500458
7.56280518 -3.37748504 73.05000305
-2.12734699 -3.17689705 73.02500916
-5.32688904 -3.07928801 73.07500458
8.96455479 -2.68015003 73.07500458
-6.12431479 -2.57948208 73.05000305
9.16443539 -2.38079596 73.07500458
-5.82459593 -2.28023100 73.05000305
8.66176987 -2.08072996 73.05000305
10.26377773 -1.58252001 73.07500458
-7.02587223 -1.48273504 73.07500458
9.66413593 -1.48273504 73.07500458
9.05519104 -1.38153195 73.00000000
-8.22233963 -1.18297696 73.05000305
-8.71888542 -0.88342398 73.02500916
9.96395683 -0.78424400 73.07500458
-8.52497482 -0.48489001 73.07500458
9.35470486 -0.48439300 73.00000000
-7.82539320 -0.38510600 73.07500458
9.76407719 -0.28532100 73.07500458
10.86341858 -0.28532100 73.07500458
-11.12341881 -0.18553700 73.07500458
-9.21508789 -0.18534601 73.00000000
10.45291805 -0.18534601 73.00000000
-8.12521362 0.01403200 73.07500458
-11.72306061 0.21360099 73.07500458
10.65624237 0.21345501 73.02500916
-12.11867428 0.51277900 73.05000305
-11.81693363 0.61242449 73.03750610
11.15178204 0.81147498 73.00000000
-12.52258110 1.11166203 73.07500458
-13.02005386 1.21123910 73.06250000
11.16323853 1.41101503 73.07500458
11.75885582 1.41053295 73.05000305
10.76347733 1.61058402 73.07500458
11.05194378 1.70861304 73.00000000
11.86281967 1.71036899 73.07500458
11.15942001 2.00903511 73.05000305
11.66293907 2.20929098 73.07500458
11.55508804 2.50692797 73.02500916
11.76287937 2.80799794 73.07500458
4.16742706 8.69528484 73.07500458
5.06688786 8.79506874 73.07500458
1.06891596 8.89181042 73.05000305
5.46665001 8.89485359 73.07500458
-12.91350174 8.98848438 73.02500916
-8.12521362 9.09442234 73.07500458
-9.02467537 9.29399204 73.07500458
6.46605110 9.29399204 73.07500458
7.85983181 9.68649769 73.02500916
-11.01970768 9.78956413 73.05000305
4.76217604 9.88254547 73.00000000
2.96916008 -7.77181816 73.09999847
2.37174511 -7.67987013 73.17500305
3.37020993 -7.37506390 73.12500763
0.27013001 -7.28018618 73.17500305
2.27166796 -7.28018618 73.17500305
2.67197609 -7.08034277 73.17500305
3.47259092 -7.08034277 73.17500305
0.26994500 -6.97565413 73.12500763
3.07018399 -6.67609501 73.12500763
0.37020600 -6.48081684 73.17500305
0.77051401 -6.48081684 73.17500305
2.17159104 -6.48081684 73.17500305
2.47055507 -6.47749615 73.13749695
2.77205300 -6.48081684 73.17500305
-0.43026200 -6.27882910 73.15000153
-1.33110094 -5.98121214 73.17500305
-2.53202510 -5.88129091 73.17500305
-0.93079400 -5.78137016 73.17500305
-2.23179412 -5.68144894 73.17500305
-0.03009100 -5.67950821 73.15000916
0.46996200 -5.67756701 73.12500000
-2.73124504 -5.57962084 73.15000153
1.07074499 -5.58152819 73.17500305
-3.03137398 -5.47973394 73.15000153
-1.92958295 -5.47598791 73.09999847
-0.82986498 -5.47598791 73.09999847
0.56997102 -5.37800884 73.12500763
-0.23025499 -5.28176498 73.17500305
1.47004795 -5.27815580 73.12500763
-3.73294806 -5.18184423 73.17500305
-3.33263993 -5.18184423 73.17500305
-0.63034701 -5.18007421 73.15000153
0.06995200 -5.18007421 73.15000153
-1.03051805 -5.08018589 73.15000153
5.57039785 -5.07845020 73.12500763
1.57005596 -4.97859812 73.12500763
5.07382202 -4.98200178 73.17500305
3.97026110 -4.87874508 73.12500763
4.27247715 -4.88124609 73.16250610
-2.83031988 -4.77889204 73.12500763
6.17045021 -4.77889204 73.12500763
7.27302885 -4.78052616 73.15000153
-4.13325500 -4.68223906 73.17500305
7.36803198 -4.47780180 73.09999847
1.17042196 -4.38097811 73.15000153
3.97297597 -4.38247490 73.17500305
-0.43040901 -4.18263292 73.17500305
7.47566891 -4.18263292 73.17500305
-0.83071703 -4.08271217 73.17500305
0.66974998 -4.07852697 73.09999847
1.77067804 -4.08131695 73.15000153
-3.93175793 -3.98143101 73.15000153
5.77436113 -3.88286996 73.17500305
-4.43348598 -3.68302798 73.17500305
7.66795492 -3.67925310 73.09999847
5.87243080 -3.58188295 73.15000153
6.27474499 -3.48318601 73.17500305
6.76818705 -3.47961593 73.09999847
8.17341423 -3.48199606 73.15000153
-0.83014899 -3.38095307 73.12500763
7.07052708 -3.38095307 73.12500763
-4.73210001 -3.28222203 73.15000153
8.67362785 -3.28222203 73.15000153
-4.33044910 -3.18124700 73.12500763
-3.53279400 -3.08350110 73.17500305
-3.83171511 -2.98256111 73.15000153
-5.73056793 -2.88168907 73.12500763
-4.73048306 -2.88168907 73.12500763
-3.33263993 -2.78373790 73.17500305
-6.43282700 -2.68289995 73.15000153
-3.63162994 -2.68289995 73.15000153
9.47396946 -2.28335309 73.15000153
-6.83533192 -2.08429098 73.17500305
9.67736053 -1.98436999 73.17500305
-7.42817307 -1.88251698 73.09999847
8.67659187 -1.78452802 73.17500305
-7.73338223 -1.58414400 73.15000153
9.37713146 -1.58468604 73.17500305
-6.63291216 -1.48425698 73.15000153
-7.83074808 -1.28404403 73.12500763
10.17774487 -1.28492200 73.17500305
9.27705383 -1.18500102 73.17500305
9.77743816 -1.18500102 73.17500305
10.67813015 -1.18500102 73.17500305
-9.03702545 -0.88523799 73.17500305
-7.93617916 -0.88523799 73.17500305
11.07843781 -0.78531700 73.17500305
-9.73756409 -0.58547503 73.17500305
-11.13864040 -0.48555401 73.17500305
-10.62735271 -0.48505601 73.09999847
-9.43410873 -0.48538801 73.15000153
-9.73091030 -0.28551701 73.12500763
-7.83610201 -0.08587000 73.17500305
-11.22719860 0.11385600 73.09999847
11.47090340 0.61315900 73.12500763
11.47874641 0.91334099 73.17500305
11.97503853 2.01178503 73.15000153
11.87905312 2.41215706 73.17500305
11.77495289 3.11054111 73.15000153
11.56695461 4.00678301 73.09999847
11.37866879 5.40978909 73.17500305
11.27473927 5.70760202 73.15000153
11.07843781 6.90860510 73.17500305
3.37136197 8.60432053 73.15000153
3.76895499 8.69825935 73.09999847
-13.43581867 8.80409527 73.15000153
-8.53664017 9.20678902 73.17500305
7.16808414 9.59662724 73.09999847
-9.23717880 9.60647297 73.17500305
-10.53817844 9.80631447 73.17500305
-0.13035600 -7.49025106 73.27500916
1.37284899 -7.19007778 73.27500916
2.97626901 -6.98996305 73.27500916
0.57094502 -6.88755417 73.25000000
-0.33067101 -6.68750715 73.25000000
1.57220304 -6.58523512 73.22500610
1.87391806 -6.48967505 73.27500916
-0.93142998 -6.38525581 73.22500610
0.07007100 -6.38961601 73.27500916
0.87178099 -6.18950176 73.27500916
1.67234898 -6.18527794 73.22500610
2.37498689 -6.18950176 73.27500916
-0.83185202 -6.08944416 73.27500916
-2.83419108 -5.88531017 73.22500610
0.87118602 -5.88531017 73.22500610
-1.23228645 -5.68727255 73.25000763
3.87819195 -5.68921423 73.27500916
0.77143550 -5.58820200 73.26250458
1.37284899 -5.58915615 73.27500916
-4.13607979 -5.38536310 73.22500610
-2.33505702 -5.38903999 73.27500916
-1.63188899 -5.38352489 73.20000458
-2.73311210 -5.28356886 73.20000458
1.07184196 -5.18715477 73.25000000
-2.13390207 -5.08713198 73.25000000
-3.03551698 -4.98710823 73.25000000
-3.93847704 -4.88875198 73.27500916
-2.53462005 -4.88708401 73.25000000
1.37238097 -4.78706121 73.25000000
3.67650890 -4.78706121 73.25000000
3.37366700 -4.68383789 73.20000458
0.57055497 -4.58388281 73.20000458
2.97626901 -4.48852205 73.27500916
-3.93847704 -4.38846397 73.27500916
1.47306299 -4.28840685 73.27500916
7.18524504 -4.28840685 73.27500916
2.37417603 -4.18692017 73.25000000
5.88246584 -4.18834877 73.27500916
6.38026714 -4.18620586 73.23750305
-4.33933210 -4.08829212 73.27500916
0.97199500 -4.08829212 73.27500916
7.18279314 -3.98687291 73.25000000
-5.23767805 -3.88552308 73.22500610
-4.94061279 -3.88817596 73.27500916
6.18310690 -3.88817596 73.27500916
-2.93533802 -3.78682590 73.25000000
-0.33055800 -3.78553391 73.22500610
0.97133100 -3.78553391 73.22500610
-0.93206602 -3.68806100 73.27500916
-0.63142502 -3.58800292 73.27500916
7.88674021 -3.28783107 73.27500916
7.58609915 -3.08771491 73.27500916
8.88887691 -3.08771491 73.27500916
-5.13928699 -2.58654404 73.25000000
-5.84253693 -2.48737001 73.27500916
8.68548489 -2.38649702 73.25000000
-6.44162083 -2.08642697 73.25000000
8.18738079 -1.98708200 73.27500916
10.29186821 -1.88702404 73.27500916
-6.63744593 -1.78513706 73.20000458
-7.44087601 -1.58576798 73.22500610
8.88887691 -1.58685100 73.27500916
9.98781872 -1.58631003 73.25000000
-8.74574947 -1.08619201 73.25000000
-8.43944645 -0.98549598 73.20000458
-10.15172672 -0.88644803 73.27500916
10.18817711 -0.88614500 73.25000000
-9.44378185 -0.78585398 73.22500610
-8.34788036 -0.68633300 73.27500916
-8.04723835 -0.58627498 73.27500916
9.59037209 -0.58627498 73.27500916
-9.04628754 -0.38602799 73.25000000
10.58889580 -0.28600499 73.25000000
10.19165421 -0.18604501 73.27500916
-11.95557308 0.11412800 73.27500916
-11.54486275 0.41394752 73.21250916
11.79507446 1.01464701 73.27500916
-13.35856438 1.31482005 73.27500916
11.49443340 1.41487706 73.27500916
11.29015255 1.71446502 73.25000000
11.59069061 1.71446502 73.25000000
-14.34600353 2.01315999 73.20000458
12.09158802 2.81472301 73.25000000
11.29400635 6.71793079 73.27500916
10.88200092 7.21083117 73.20000458
2.47266698 8.61020279 73.20000458
4.47641706 8.61314392 73.22500610
1.77188897 8.71015835 73.20000458
-16.74867058 9.01002407 73.20000458
-13.15364647 9.01617813 73.25000000
-7.34323597 9.11620140 73.25000000
-9.55044460 9.21937180 73.27500916
-7.84145689 9.21308041 73.22500610
6.08289289 9.21937180 73.27500916
-16.35939217 9.41627216 73.25000000
-8.34788036 9.41948605 73.27500916
-10.04122353 9.50979996 73.20000458
-9.75087166 9.51954460 73.27500916
-8.84592819 9.51629543 73.25000000
-7.34323597 9.61631966 73.25000000
-10.15172672 9.91977501 73.27500916
2.37741709 -8.09887695 73.35000610
2.67745304 -7.99599123 73.32500458
0.17045900 -7.59807682 73.35000610
2.07646799 -7.49791718 73.35000610
-0.23064800 -7.19253111 73.30000305
1.97615194 -7.19743681 73.35000610
2.27710104 -6.99711800 73.35000610
1.27393794 -6.89695692 73.35000610
1.87583601 -6.89695692 73.35000610
0.87237602 -6.79447985 73.32500458
1.17402196 -6.59872484 73.37500763
-0.63207102 -6.39615583 73.35000610
2.98032999 -6.39833593 73.37500763
1.17322195 -6.29384995 73.32500458
-2.73964596 -6.19794893 73.37500763
2.67745304 -6.19372559 73.32500458
-2.33585405 -6.09152079 73.30000305
3.08068109 -6.09775400 73.37500763
-0.53157300 -5.99347305 73.32500458
-0.23088400 -5.99756002 73.37500763
0.37109199 -5.99551678 73.35000610
-1.93552196 -5.89334679 73.32500458
1.17322195 -5.89334679 73.32500458
-3.24139905 -5.69697809 73.37500763
-0.63207102 -5.69503689 73.35000610
-0.33100900 -5.69309616 73.32500458
4.18311024 -5.59487581 73.35000610
-3.54124308 -5.49471712 73.35000610
0.07016700 -5.39639521 73.37500763
0.37121800 -5.39639521 73.37500763
1.67577398 -5.39639521 73.37500763
-0.93302000 -5.29439688 73.35000610
3.87951493 -5.29078722 73.30000305
4.18168402 -5.29259205 73.32500458
5.99084377 -5.19600677 73.37500763
0.37115499 -5.09494448 73.36250305
1.77491403 -5.09233999 73.32500458
-4.34525299 -4.99561787 73.37500763
1.67577398 -4.79522991 73.37500763
4.58593798 -4.79522991 73.37500763
5.28658915 -4.79359579 73.35000610
7.49610090 -4.79522991 73.37500763
0.87297100 -4.69503593 73.37500763
5.58563423 -4.69183683 73.32500458
7.79715300 -4.69503593 73.37500763
-4.44408894 -4.49311590 73.35000610
6.38571215 -4.49005413 73.30000305
1.87647498 -4.39445400 73.37500763
3.68278408 -4.39445400 73.37500763
7.69418001 -4.39295578 73.35000610
6.79133415 -4.29279613 73.35000610
-4.74503803 -4.19263601 73.35000610
6.78901815 -3.99095511 73.32500458
7.59645224 -3.99367690 73.37500763
-4.64313889 -3.89083004 73.32500458
-0.63207102 -3.89215589 73.35000610
6.48817205 -3.89083004 73.32500458
-4.14455223 -3.79328799 73.37500763
6.79133415 -3.69183612 73.35000610
7.99240303 -3.69057798 73.32500458
-4.84700584 -3.49270606 73.37500763
-4.24490309 -3.49270606 73.37500763
8.49091816 -3.48913598 73.30000305
-4.94735622 -3.19212294 73.37500763
-5.95086098 -3.09192896 73.37500763
-5.54378605 -3.08876896 73.30000305
8.09820366 -3.09192896 73.37500763
7.79715300 -2.89154100 73.37500763
-6.14737034 -2.78944492 73.32500458
9.19265270 -2.78849411 73.30000305
9.50311089 -2.49076390 73.37500763
8.39925480 -2.29037595 73.37500763
9.79748058 -2.28881502 73.32500458
-6.14946604 -2.18943596 73.35000610
-7.15262890 -2.08927608 73.35000610
-7.05231285 -1.68863595 73.35000610
-9.26242638 -0.98785198 73.37500763
-8.15857124 -0.98785198 73.37500763
9.84927559 -0.88720399 73.33750916
-7.65160084 -0.58667499 73.32500458
10.80030155 -0.58667499 73.32500458
-10.36274910 -0.38655499 73.35000610
10.90801716 -0.28649300 73.37500763
-11.36203766 -0.18617199 73.32500458
-11.66288376 -0.08604600 73.32500458
-12.07223892 0.51506102 73.37500763
-12.76598454 1.11546504 73.32500458
12.10809612 2.21760607 73.35000610
11.39810658 2.31618500 73.30000305
11.71082020 3.32049704 73.37500763
10.59973717 7.62364721 73.32500458
-17.08976173 8.02962303 73.37500763
4.78500795 8.62784767 73.35000610
5.18627310 8.82816792 73.35000610
-7.55646801 9.33214760 73.37500763
-15.37332058 9.62616539 73.32500458
7.19504976 9.73292446 73.37500763
-10.96464729 9.82976818 73.35000610
2.28098202 -7.81168699 73.47500610
3.18428302 -7.70873213 73.45000458
3.48564196 -7.40784311 73.45000458
0.57269901 -7.31003284 73.47500610
2.28098202 -7.31003284 73.47500610
3.58609509 -7.00665617 73.45000458
0.17063400 -6.80374718 73.42500305
3.18536711 -6.80837917 73.47500610
0.47205099 -6.60547018 73.45000458
1.47658098 -6.40487719 73.45000458
-1.33655906 -6.30672598 73.47500610
0.07026300 -6.10606384 73.47500610
1.37659705 -6.10606384 73.47500610
3.38634109 -6.10606384 73.47500610
-1.53648698 -6.00164700 73.42500305
2.38065791 -5.90339422 73.45000458
2.68110490 -5.90138388 73.42500305
3.98926401 -5.90540314 73.47500610
-1.03509700 -5.80507278 73.47500610
-2.74338007 -5.70474195 73.47500610
3.08330441 -5.75194454 73.43750000
-2.03927493 -5.60250378 73.45000458
1.07513499 -5.60441113 73.47500610
-3.84742999 -5.40191078 73.45000458
-0.63293302 -5.40191078 73.45000458
-3.24581599 -5.30341911 73.47500610
1.37565994 -5.29980898 73.42500305
4.89198399 -5.10102081 73.45000458
3.88745403 -5.00072479 73.45000458
4.18881321 -4.90042782 73.45000458
0.57250398 -4.80013084 73.45000458
6.19365501 -4.89709187 73.40000153
-4.25068808 -4.70143509 73.47500610
8.20972729 -4.60110378 73.47500610
2.28098202 -4.40044308 73.47500610
5.79606199 -4.49924183 73.45000458
1.17522192 -4.34877968 73.45000458
2.88390493 -4.19978094 73.47500610
1.67748702 -4.09805489 73.45000458
1.17562199 -3.89878893 73.47500610
-5.45282078 -3.79587293 73.42500305
8.31021500 -3.69812703 73.47500610
-3.04484200 -3.59779692 73.47500610
-5.75603819 -3.49627590 73.45000458
8.10648155 -3.39597893 73.45000458
8.80665398 -3.39482403 73.42500305
-5.35604811 -3.29680395 73.47500610
-6.46140718 -2.89548206 73.47500610
-5.04942703 -2.89252591 73.40000153
8.31021500 -2.89548206 73.47500610
8.61167717 -2.79515100 73.47500610
-5.75799704 -2.69481993 73.47500610
8.91313839 -2.69481993 73.47500610
7.90557623 -2.59360695 73.45000458
8.20972729 -2.59448910 73.47500610
-2.84386706 -2.49415898 73.47500610
8.10924053 -2.29349709 73.47500610
-6.76286888 -2.09283590 73.47500610
8.50250244 -1.89024305 73.40000153
10.52093315 -1.79184401 73.47500610
9.11411285 -1.59118199 73.47500610
-7.76774120 -1.49085200 73.47500610
10.51377392 -1.38957500 73.42500305
-8.06920338 -1.29018998 73.47500610
10.21947193 -1.08952904 73.47500610
10.72190857 -1.08952904 73.47500610
9.41237068 -0.98886198 73.45000458
-7.86822796 -0.78853703 73.47500610
-8.76962852 -0.68797201 73.45000458
-10.06865978 -0.58727503 73.40000153
-11.07250500 -0.28659001 73.40000153
-11.77920818 0.31488699 73.42500305
-12.08046532 0.81619900 73.42500305
11.42143154 1.91973901 73.45000458
11.81519508 1.91843200 73.40000153
11.82726860 2.72303796 73.47500610
11.82324409 3.02300191 73.45000458
11.42531872 4.62932205 73.47500610
11.41365623 5.12573814 73.40000153
11.31712532 5.92958403 73.42500305
11.22434425 6.23461294 73.47500610
11.12385654 7.03725910 73.47500610
9.91126060 8.23561954 73.42500305
2.07788396 8.63372803 73.40000153
3.48682809 8.64255047 73.47500610
2.58156395 8.73990631 73.45000458
1.57757103 8.84321213 73.47500610
5.79606199 9.04079628 73.45000458
-8.16135025 9.13486958 73.40000153
6.50144482 9.24453545 73.47500610
-9.26873779 9.33850670 73.42500305
-7.96600389 9.44198227 73.45000458
0.07026300 9.44519520 73.47500610
6.95006275 9.44037533 73.43750000
6.60193205 9.54552746 73.47500610
-1.03403997 9.83646774 73.40000153
-10.67460060 9.94008064 73.42500305
2.88783002 -8.22418690 73.57500458
0.07035800 -7.82231903 73.57500458
-1.84149802 -7.31998301 73.57500458
2.58332205 -7.31252003 73.50000000
0.87505299 -7.11662912 73.55000305
1.17722201 -7.11904812 73.57500458
-1.94212198 -7.01857996 73.57500458
-1.43851304 -7.01619482 73.55000305
-1.13635695 -7.01381111 73.52500916
-0.33213800 -6.91811323 73.57500458
0.57347798 -6.91811323 73.57500458
-1.33792305 -6.71489620 73.55000305
-1.03580105 -6.71261406 73.52500916
-0.63401002 -6.71717882 73.57500458
2.08071494 -6.71033096 73.50000000
3.18970203 -6.51624393 73.57500458
-1.94212198 -6.11437511 73.57500458
-3.04691410 -5.90942097 73.52500916
-2.34461689 -5.91344023 73.57500458
-0.73463398 -5.91344023 73.57500458
-3.55210590 -5.81297302 73.57500458
0.67364401 -5.80902290 73.52500916
1.37800205 -5.81099796 73.55000305
3.38749290 -5.80704689 73.50000000
0.27142200 -5.70862389 73.52500916
-2.44274902 -5.60631800 73.50000000
-1.43802404 -5.60822487 73.52500916
1.88159001 -5.51157093 73.57500458
-2.54586601 -5.31063700 73.57500458
0.87475502 -5.30702782 73.52500916
-4.15584898 -5.21016979 73.57500458
-2.14336896 -5.21016979 73.57500458
1.98053002 -5.20574379 73.51250458
-2.84483504 -5.10449314 73.50000000
-1.84149802 -5.10970211 73.57500458
4.49475718 -5.10622978 73.52500916
5.49844313 -5.10449314 73.50000000
0.87535000 -5.00923491 73.57500458
6.51029301 -5.00923491 73.57500458
1.98221397 -4.90876722 73.57500458
7.20975924 -4.90543222 73.52500916
2.88783002 -4.70783281 73.57500458
6.70698118 -4.70463419 73.52500916
2.08283806 -4.60736609 73.57500458
2.58507895 -4.50536823 73.55000305
7.51653290 -4.50689888 73.57500458
3.99333596 -4.40493393 73.55000305
6.10572195 -4.40493393 73.55000305
-4.25213385 -4.30157518 73.50000000
8.01147842 -4.30157518 73.50000000
8.31869793 -4.30450106 73.55000305
7.40834904 -4.20121002 73.50000000
1.37846994 -4.10503006 73.57500458
7.91095591 -4.00048018 73.50000000
-2.74524689 -3.60024500 73.52500916
9.12341595 -3.30016994 73.55000305
8.42214870 -3.20082402 73.57500458
