-11.55864716 0.19715901 67.45000458
-11.18136311 0.10497800 67.40000153
-12.57336617 0.38136601 67.45000458
-11.28190517 0.47347000 67.45000458
-12.57802582 0.93433398 67.47500610
-11.55436230 1.30191898 67.42500305
1.35596204 1.30240202 67.45000458
1.44820905 1.67081594 67.45000458
-11.55864716 1.94712603 67.45000458
-11.65521336 2.31639791 67.47500610
-11.36993694 2.43745255 67.42499542
-12.38887215 2.86816096 67.45000458
0.98733902 2.86922503 67.47500610
-13.39862156 3.05123711 67.42500305
-13.02977085 3.05123711 67.42500305
-14.14680958 3.79060102 67.47500610
-14.32606316 4.06550694 67.45000458
0.89505702 4.06701422 67.47500610
-14.75653839 4.34181786 67.45000458
0.61798400 4.34181786 67.45000458
-15.06404114 4.89443922 67.45000458
-14.74389839 4.89534616 67.46250916
-14.05192566 5.63231087 67.46250916
0.43364999 5.81762981 67.47500610
-13.20929718 6.08726883 67.40000153
-9.62502098 6.27831793 67.47500610
-13.33192921 6.36691570 67.43750000
-12.56870461 6.54987288 67.42500305
-12.20890141 6.55473089 67.47500610
0.34124300 6.55230284 67.45000458
-0.12003800 6.73900604 67.47500610
-11.93205738 6.83114386 67.47500610
-12.94715214 6.92328119 67.47500610
0.15680601 6.92328119 67.47500610
-13.31627655 7.29183197 67.47500610
-10.54001904 7.28642797 67.42500305
-0.35068500 7.38260174 67.46250916
-0.48889151 7.65612555 67.43750000
-10.26338005 7.74677610 67.42500305
-9.25246716 7.93385601 67.45000458
-12.28750896 8.02000904 67.40000153
-8.78471470 8.02000904 67.40000153
-2.88740945 8.02595901 67.45000458
-2.42437506 8.02000904 67.40000153
-9.98674107 8.11505318 67.42500305
-9.52920818 8.11806202 67.45000458
-9.15342903 8.25009727 67.40000153
-2.05566001 8.29611492 67.40000153
-1.41040802 8.29611492 67.40000153
-0.85828900 8.21320820 67.47500610
-8.05026817 8.39126110 67.42500305
-6.85149908 8.48333073 67.42500305
-5.47235918 8.48962212 67.47500610
-2.61163497 8.48962212 67.47500610
-6.11379480 8.57540035 67.42500305
-0.95021802 8.57858086 67.45000458
-7.87167501 8.67389774 67.47500610
-1.78110301 8.67389774 67.47500610
-1.31920695 8.67068386 67.45000458
-7.03331614 8.75629139 67.40000153
-5.74707270 8.85489082 67.45000458
-2.61066794 8.85489178 67.45000458
-3.07304192 9.04244804 67.47500610
-4.18041897 9.13458633 67.47500610
-3.83186722 9.12866306 67.43125916
-2.42707300 9.13458633 67.47500610
-6.38806391 9.21646690 67.40000153
-5.19551516 9.22672272 67.47500610
-1.87338400 9.22672272 67.47500610
-5.56464100 9.41099930 67.47500610
-2.70191312 9.49609470 67.42500305
-5.93156719 9.59171867 67.45000458
-4.18041897 9.59527302 67.47500610
-3.34988689 9.68741226 67.47500610
-6.39280319 9.86802959 67.45000458
-5.74707317 9.86802959 67.45000458
-2.61163497 9.87168694 67.47500610
-2.43067002 -5.61575079 67.57500458
-3.72176790 -5.51939011 67.52500916
-3.17001510 -5.52347708 67.57500458
-2.15102506 -5.42517519 67.50000000
-3.35361004 -5.24471283 67.55000305
-2.15182209 -4.96615410 67.52500916
-5.94256020 -4.78528309 67.57500458
-4.27745008 -4.78351307 67.55000305
-7.42125082 -4.64687157 67.57500458
-3.94514275 -4.65471029 67.55500793
-2.80034304 -4.64687157 67.57500458
-2.06023502 -4.55291271 67.55000305
-7.04896879 -4.41455317 67.55000305
-4.46221781 -4.41455317 67.55000305
-3.72383499 -4.41536951 67.56250000
-8.06519222 -4.23007202 67.55000305
-6.67943287 -4.23007202 67.55000305
-3.53706908 -4.13630104 67.52500916
-4.09268188 -4.04559183 67.55000305
-2.33825207 -4.04709005 67.57500458
-0.85956103 -4.04709005 67.57500458
-6.31223202 -3.95481491 67.57500458
-1.96785104 -3.95335197 67.55000305
-3.35298967 -3.86039734 67.53750610
-2.61550593 -3.58571792 67.57500458
-2.24417210 -3.58306599 67.52500916
-8.62268543 -3.40117002 67.57500458
-5.01652193 -3.49215102 67.55000305
-4.27903318 -3.40117002 67.57500458
-3.81694198 -3.49344397 67.57500458
-3.16884255 -3.44601440 67.55000305
-5.57082605 -3.39991093 67.55000305
-4.64784527 -3.30828404 67.56250000
-8.34234524 -3.21543097 67.55000305
-6.45085955 -3.21662211 67.57500458
-2.42976999 -3.21543097 67.55000305
-3.35361004 -3.12319112 67.55000305
-2.33738708 -2.75423098 67.55000305
-8.52869034 -2.66248345 67.56250000
-8.16059589 -2.66297603 67.57500458
-3.62941790 -2.66100597 67.52500916
-2.75259638 -2.66149855 67.53750610
-6.40228081 -2.56975102 67.55000305
-8.34543228 -2.38615298 67.57500458
-2.52308798 -2.38615298 67.57500458
-8.70865631 -2.29218197 67.52500916
-2.06099701 -2.29387903 67.57500458
-2.33825207 -2.10933089 67.57500458
-8.71510410 -1.64795995 67.57500458
-2.79930711 -1.46287000 67.55000305
-10.19379520 -1.37113702 67.57500458
-2.52184367 -1.27823222 67.54166412
-8.98903275 -1.18614995 67.55000305
-11.65953064 -1.00092804 67.50000000
-10.09016514 -0.90875602 67.50000000
-0.67472500 -0.90976602 67.57500458
-8.89006233 -0.81658500 67.50000000
-2.52122092 -0.81688702 67.52500916
-9.44745445 -0.63247502 67.52500916
-1.96857905 -0.54066902 67.57500458
0.06454900 -0.54006898 67.50000000
0.71154797 -0.54066902 67.57500458
-11.67248535 -0.44839501 67.57500458
-10.64800262 -0.44806299 67.52500916
-0.21263400 -0.44839501 67.57500458
1.35847497 -0.44839501 67.57500458
-10.93314075 -0.35612100 67.57500458
-0.76657498 -0.17144500 67.52500916
-10.74432755 -0.07926900 67.55000305
-10.36711216 -0.07921000 67.50000000
-12.31485462 0.10521100 67.55000305
-10.92909622 0.19745100 67.55000305
-12.03770256 0.28969201 67.55000305
-0.67472500 0.28979900 67.57500458
1.63391399 0.28947699 67.50000000
-11.58006668 0.47434700 67.57500458
-10.74830341 0.47434700 67.57500458
-11.02555847 0.65889603 67.57500458
1.63512397 0.75089198 67.55000305
-11.39523125 0.84344399 67.57500458
-12.04215813 1.02799201 67.57500458
-10.84072208 1.02799201 67.57500458
-10.82869053 1.39553905 67.50000000
-11.76490307 1.58163798 67.57500458
-11.11386299 1.58105302 67.55000305
-11.11386299 2.04225302 67.55000305
1.35847497 2.13528299 67.57500458
-11.94974041 2.31983089 67.57500458
-12.22247219 2.50345302 67.55000305
-11.57578278 2.78017402 67.55000305
1.17320395 3.24137402 67.55000305
-13.42843056 3.33484793 67.57500458
-14.53744888 3.51939607 67.57500458
-12.59200764 3.51809406 67.55000305
-13.69554424 3.60899806 67.52500916
-14.90436363 4.07228804 67.56250000
-14.26019382 4.34986401 67.57500458
-14.62174988 4.62411976 67.53750610
-13.88795090 4.94872284 67.56250000
-14.53207016 5.17841482 67.55000305
0.43397152 5.26870537 67.52500153
-14.53744888 5.54942894 67.57500458
-14.16253471 5.91633701 67.55000305
-13.89052105 6.10307407 67.57500458
-9.95352554 6.28180695 67.51250458
-13.33107758 6.65425682 67.55000305
-11.85293579 7.11545706 67.55000305
-12.78150368 7.21036482 67.57500458
-12.31941223 7.39491320 67.57500458
-12.02879238 7.57104921 67.50000000
-11.57149982 7.57385397 67.52500916
-10.74035168 7.57385397 67.52500916
-11.02555847 7.67173481 67.57500458
-0.76657498 7.85047197 67.52500916
-7.14399576 7.94855785 67.57500458
-11.21039581 8.04083347 67.57500458
-10.55565166 8.12709045 67.52500916
-8.53026867 8.13310623 67.57500458
-6.40228081 8.13009834 67.55000305
-8.85373116 8.31765556 67.57500458
-2.33825207 8.31765556 67.57500458
-7.65087128 8.45449448 67.56250000
-8.98903275 8.59129906 67.55000305
-5.11079597 8.59447861 67.57500458
-4.37145090 8.59447861 67.57500458
-4.83175421 8.86801910 67.55000305
-1.04439700 8.87130165 67.57500458
-4.55516338 9.05361557 67.55834198
-2.75211310 9.14135456 67.52500153
-1.50537300 9.14135456 67.52500916
-5.84797812 9.23697853 67.55000305
-4.82996607 9.23356056 67.52500916
-3.63210607 9.33267212 67.57500458
-2.43067002 9.42494583 67.57500458
-3.90935993 9.79404259 67.57500458
-2.89276099 9.97859097 67.57500458
-2.06328511 -5.99148989 67.65000153
-2.86584449 -5.53096962 67.66667175
-4.00769997 -5.25441790 67.67500305
-2.98849201 -5.25247812 67.65000153
-1.87754905 -5.25053596 67.62500763
-6.96688318 -5.16010094 67.65000153
-6.13646412 -5.16200686 67.67500305
-5.25425339 -5.06678772 67.63750458
-3.72865796 -5.06772423 67.65000153
-2.52682209 -5.06959677 67.67500305
-2.83395696 -4.97473478 67.64167023
-6.31923819 -4.60584116 67.65000153
-5.02301979 -4.65118647 67.63750458
-4.65558481 -4.69995403 67.67500305
-5.85879898 -4.42272091 67.67500305
-5.48249722 -4.41781998 67.60000610
-3.08215094 -4.33031082 67.67500305
-0.95338798 -4.33031082 67.67500305
-6.22901821 -4.23789978 67.67500305
-4.83622408 -4.23398590 67.61250305
-1.41511595 -4.23476887 67.62500763
-8.35778236 -4.14548922 67.67500305
-7.33967686 -4.14548922 67.67500305
-3.82188416 -4.14472389 67.66250610
-5.11457777 -4.05008411 67.62500763
-2.89597106 -3.95920491 67.65000153
-8.63544559 -3.86825705 67.67500305
-5.94915485 -3.86682796 67.65000153
-5.57907200 -3.77445102 67.65000153
-5.25427055 -3.68139458 67.63750458
-4.14653254 -3.68343496 67.67500305
-1.78539252 -3.68139458 67.63750458
-8.35469437 -3.58969808 67.65000153
-6.96945810 -3.59102392 67.67500305
-6.22901821 -3.59102392 67.67500305
-1.97076404 -3.40494490 67.65000153
-2.89490104 -3.31134391 67.62500763
-7.14928198 -3.12665892 67.62500763
-8.72800159 -3.03656006 67.67500305
-4.18971300 -2.94197392 67.62500763
-2.80448699 -2.94414902 67.67500305
-2.06328511 -2.66593194 67.65000153
-4.09874105 -2.57355499 67.65000153
-3.17353296 -2.57355499 67.65000153
-8.91311073 -2.48209500 67.67500305
-6.13646412 -2.48209500 67.67500305
-3.54361606 -2.20404911 67.65000153
-2.71093011 -2.11167192 67.65000153
-3.81835389 -2.01780295 67.60000610
-2.06328511 -1.92691898 67.65000153
-2.43336701 -1.83454204 67.65000153
-8.34852028 -1.64856899 67.60000610
-9.92387772 -1.55683696 67.62500763
-9.00566578 -1.55798805 67.67500305
-8.07116222 -1.46395302 67.60000610
-3.17118812 -1.46395302 67.60000610
-1.97003603 -1.46449399 67.62500763
-10.94931984 -1.28075504 67.67500305
-1.50816000 -1.28028202 67.65000916
-9.37588596 -1.18834496 67.67500305
-2.98959589 -1.18834496 67.67500305
-11.31953907 -1.00352299 67.67500305
-2.24915695 -1.00352299 67.67500305
-1.13807726 -1.03395605 67.65000153
-9.55746365 -0.91077602 67.65000153
-0.12039400 -0.81870198 67.67500305
-10.01266289 -0.63317800 67.60000610
-0.58316803 -0.63388002 67.67500305
-9.74610519 -0.44905901 67.67500305
-9.36895943 -0.35638401 67.62500763
0.06468000 -0.26409048 67.63750458
-11.68975925 -0.07941600 67.67500305
-0.21294899 0.19781700 67.67500305
-12.69378090 0.65913898 67.60000610
-12.14355564 0.65938300 67.62500763
-10.48267078 0.65962702 67.65000153
-11.68112278 1.02875304 67.62500763
1.54502404 1.02913296 67.65000153
-11.41209412 1.39915705 67.67500305
-11.40787792 1.76814699 67.65000153
-11.41209412 2.13844299 67.67500305
-11.96742344 2.69290709 67.67500305
1.26793003 2.69290709 67.67500305
-13.72596645 3.15496111 67.67500305
-12.41642284 3.15146494 67.60000610
-14.00363159 3.33978295 67.67500305
0.98916799 3.70531511 67.60000610
-15.01896095 4.35549641 67.66250610
-14.27602196 4.72419786 67.65000153
0.52749097 4.81835508 67.67500305
-14.27602196 5.37083483 67.65000153
-10.01266289 5.73609877 67.60000610
0.34212801 6.10759020 67.62500763
-13.63341236 6.48174906 67.67500305
-13.26074314 6.94251919 67.66250610
-13.62333870 7.21570015 67.62500763
-0.02782800 7.21836805 67.65000153
-12.60598755 7.49272680 67.62500763
-11.78231335 7.40585613 67.67500305
-0.58316803 7.49826717 67.67500305
-13.07808304 7.59067822 67.67500305
-10.39398956 7.59067822 67.67500305
-0.21294899 7.59067822 67.67500305
-11.77796173 7.86500406 67.65000153
-10.76288319 7.86694145 67.66667175
-10.30143547 7.96032095 67.67500305
-12.05997753 8.14514256 67.67500305
-2.71193099 8.14514256 67.67500305
-7.33154297 8.22842407 67.60000610
-10.94527531 8.32688713 67.65000153
-9.83139229 8.32381058 67.62500763
-8.26217270 8.32688713 67.65000153
-0.67547399 8.41926384 67.65000153
-10.57128429 8.50849533 67.62500763
-9.55393219 8.53926468 67.62500763
-8.53973579 8.51164055 67.65000153
-7.33967686 8.65340137 67.67500305
-6.68437719 8.68996620 67.60000610
-6.32157278 8.69960594 67.67500305
-2.34171200 8.65340137 67.67500305
-1.50871694 8.60719681 67.67500305
-9.74250507 8.78877068 67.65000153
-8.17267132 8.79201794 67.67500305
-3.08101201 8.78877068 67.65000153
-1.97149205 8.79201794 67.67500305
-8.90323353 8.96689129 67.60000610
-7.43223286 8.97683907 67.67500305
-6.96688318 8.97352314 67.65000153
-5.58113384 8.97683907 67.67500305
-9.92020988 9.15150833 67.60000610
-3.35609293 9.15150833 67.60000610
-2.15660191 9.16166115 67.67500305
-4.47047520 9.34648228 67.67500305
-3.17236090 9.43192005 67.62500763
-6.22671700 9.52778339 67.65000153
-5.20899010 9.52778339 67.65000153
-4.37792015 9.71612453 67.67500305
-3.54230690 9.98597431 67.62500763
-1.78836203 -5.90783405 67.75000000
-3.27208900 -5.81746721 67.77500153
-2.62324691 -5.81746721 67.77500153
-1.41720903 -5.72069597 67.72500610
-1.97440505 -5.53982496 67.77500153
-1.14017999 -5.53982496 67.77500153
-2.62195659 -5.35209656 67.74166870
-4.38438892 -5.07708788 67.77500153
-7.25247717 -4.98086309 67.72500610
-3.36353898 -4.98270178 67.75000000
-1.88067245 -4.88928699 67.73750305
-7.71559381 -4.70342588 67.72500610
-3.64016795 -4.74968338 67.72500610
-7.16514015 -4.61435223 67.77500153
-6.78936100 -4.51846790 67.72500610
-1.88171399 -4.42925692 67.77500153
-4.19435883 -4.33191109 67.70000458
-7.62859821 -4.24416208 67.77500153
-3.36477995 -4.24416208 67.77500153
-2.15899205 -4.24259710 67.75000000
-6.97718096 -4.15008307 67.75000000
-4.47542906 -4.05756998 67.75000000
-2.62324691 -4.05906820 67.77500153
-1.69632995 -4.05906820 67.77500153
-1.13933897 -4.05607319 67.72500610
-7.80965805 -3.96432543 67.73750305
-7.15985394 -3.87111497 67.72500610
-3.92093110 -3.87397289 67.77500153
-2.43696499 -3.78003001 67.75000000
-4.94053888 -3.68887901 67.77500153
-3.55016398 -3.68887901 67.77500153
-6.65040779 -3.59367752 67.72500610
-5.86529207 -3.54874754 67.75000000
-2.99401402 -3.59633088 67.77500153
-4.01066113 -3.31624007 67.72500610
-5.77050400 -3.22376204 67.72500610
-3.73279095 -3.13128304 67.72500610
-6.14099693 -3.03880405 67.72500610
-2.25164890 -3.03992510 67.75000000
-3.45619702 -2.85489893 67.75000000
-4.01214218 -2.29981995 67.75000000
-1.78836203 -2.25356340 67.75000000
-9.84592915 -2.02153397 67.72500610
-8.82707405 -2.02153397 67.72500610
-2.99290895 -2.02227998 67.75000000
-10.40934944 -1.83793199 67.77500153
-2.62324691 -1.56028998 67.77500153
-9.66781521 -1.46774304 67.77500153
-1.23241699 -1.37468803 67.75000000
-10.03858185 -1.19010103 67.77500153
-1.78770196 -1.18922305 67.72500610
-10.31158447 -1.06618726 67.74166870
-0.39850000 -1.00463498 67.75000000
-9.84956360 -0.91212201 67.75000000
-9.20435715 -0.81991100 67.77500153
-1.66481864 -0.81960899 67.75000000
-10.58691597 -0.72682703 67.72500610
-1.04748797 -0.72736400 67.77500153
-11.87925529 -0.63411403 67.70000458
-10.31665707 -0.54226899 67.77500153
0.34276000 -0.54206902 67.75000000
-11.42895794 -0.44972199 67.77500153
-0.49115700 -0.26453000 67.75000000
0.52768600 -0.26433501 67.70000458
-12.07557106 0.01301200 67.76249695
-11.42474270 0.15176250 67.75000000
1.63996506 0.10552300 67.75000000
-11.15088272 0.29065600 67.77500153
-11.15088272 0.84593999 67.77500153
-10.59473228 1.03103495 67.77500153
-11.14676857 1.21568096 67.75000000
-11.98068619 1.30819404 67.75000000
1.45465028 1.46237171 67.75000000
-11.79101753 1.86258602 67.72500610
-11.60148811 2.50901294 67.70000458
-12.26318359 2.78943396 67.77500153
-12.72194672 2.88091803 67.75000000
-11.79537106 2.97343111 67.75000000
-13.09740829 3.06707597 67.77500153
-14.37916279 3.24857211 67.70000458
-11.97626591 3.24977112 67.72500610
-12.99032593 3.34101701 67.70000458
-14.95124245 3.71490693 67.77500153
0.80575001 4.35951996 67.72500610
-14.00880527 4.54280090 67.70000458
-15.11987495 4.72769022 67.70000458
-14.85581017 4.91711521 67.76249695
-15.03653431 5.16227102 67.74166870
-14.76313400 5.28723621 67.76249695
-14.48243904 5.84133911 67.75000000
-9.75330639 5.93166399 67.72500610
-10.12006283 6.02191877 67.70000458
-14.20446587 6.21139193 67.75000000
-13.92649269 6.39641905 67.75000000
0.34263399 6.39405918 67.72500610
-13.55586338 6.76647091 67.75000000
-12.81460381 6.76647091 67.75000000
-12.44397354 6.76647091 67.75000000
0.15744500 6.76647091 67.75000000
-12.16600132 6.95149803 67.75000000
-12.95597076 7.04531097 67.76249695
-11.32790184 7.68876505 67.72500610
-12.07334328 7.78411579 67.75000000
-0.49079499 7.87081718 67.70000458
-12.44397354 7.96914196 67.75000000
-11.33626747 8.24972534 67.77500153
-9.48243237 8.24972534 67.77500153
-6.64918947 8.24211693 67.71250916
-5.96014786 8.34227371 67.77500153
-1.04748797 8.34227371 67.77500153
-6.42360592 8.43482018 67.77500153
-7.62859821 8.71246243 67.77500153
-2.71293402 8.70282173 67.70000458
-9.47893429 8.89427471 67.75000000
-5.96014786 8.89755821 67.77500153
-4.29011488 8.89427471 67.75000000
-1.69570398 8.89427471 67.75000000
-2.62324691 8.99010468 67.77500153
-3.08670497 9.08265209 67.77500153
-1.23196197 9.07595062 67.72500610
-9.66781521 9.17520046 67.77500153
-5.44530869 9.25919914 67.71250916
-4.10479879 9.26432705 67.75000000
-2.90025210 9.35684109 67.75000000
-4.84784698 9.45284176 67.77500153
-2.06633401 9.44935417 67.75000000
-2.62324691 9.54538918 67.77500153
-5.49466181 9.63438034 67.75000000
-3.36477995 9.63793564 67.77500153
-3.08329010 9.71971512 67.70000458
-6.51389503 9.91191959 67.75000000
-5.58319616 9.99704933 67.70000458
-4.10631418 9.91557789 67.77500153
-2.95146513 -5.82497692 67.86250305
-2.25580406 -5.64068222 67.87500000
-3.83388805 -5.54799795 67.87500000
-5.45235395 -5.35670519 67.80000305
-5.13159513 -5.26800585 67.85000610
-3.36974502 -5.26994705 67.87500000
-2.34776807 -5.26800585 67.85000610
-5.78115511 -4.89740705 67.85000610
-5.31718397 -4.80475807 67.85000610
-4.94600630 -4.85109901 67.85000610
-3.09012151 -4.85107374 67.85000610
-2.43876290 -4.80121708 67.80000305
-4.38924122 -4.71210718 67.85000610
-6.05953789 -4.61945820 67.85000610
-3.36850405 -4.61945724 67.85000610
-4.85500002 -4.52847624 67.87500000
-3.83247495 -4.52680779 67.85000610
-2.81277490 -4.52847624 67.87500000
-5.22246504 -4.43252420 67.82500458
-2.44146109 -4.43579197 67.87500000
-1.23423600 -4.43415785 67.85000610
-8.47531033 -4.34310913 67.87500000
-4.48203516 -4.34150887 67.85000610
-8.04012012 -4.24938011 67.85833740
-5.96454477 -4.15467787 67.82500458
-0.77054900 -4.06505585 67.87500000
-6.84574890 -3.87683058 67.82500458
-5.31914282 -3.87968898 67.87500000
-2.07014704 -3.87968898 67.87500000
-8.10399628 -3.78700495 67.87500000
-7.63141203 -3.69023895 67.80000305
-4.66934299 -3.60163689 67.87500000
-3.83388805 -3.50895309 67.87500000
-7.17306900 -3.41501093 67.85000610
-3.36726308 -3.41375303 67.82500458
-5.22054005 -3.31991291 67.80000305
-4.48203516 -3.32236099 67.85000610
-2.71994591 -3.23090196 67.87500000
-3.18056989 -3.13474989 67.80000305
-8.93945217 -2.86016607 67.87500000
-3.92671609 -2.86016607 67.87500000
-2.53428888 -2.86016607 67.87500000
-2.99677491 -2.76595354 67.83750153
-2.43921232 -2.57973719 67.81250000
-3.36974502 -2.30406308 67.87500000
-2.25414205 -2.30236602 67.82500458
-9.12510967 -2.02601099 67.87500000
-3.09125996 -1.74795997 67.87500000
-10.14248562 -1.65466595 67.85000610
-9.21793747 -1.65527594 67.87500000
-2.16058493 -1.65344703 67.80000305
-10.55808830 -1.56172895 67.83750153
-1.79166198 -1.46990800 67.87500000
-11.16733646 -1.37722397 67.87500000
-11.53439903 -1.28406703 67.85000610
-9.03228092 -1.28454101 67.87500000
-2.25414205 -1.28359401 67.82500458
-0.86337692 -1.09917295 67.87500000
-1.97731900 -0.91380501 67.87500000
-9.58925247 -0.63575298 67.87500000
0.80753499 -0.63575298 67.87500000
-0.02789000 -0.54246902 67.80000305
-10.79204559 -0.45021999 67.85000610
-10.61036396 -0.17233400 67.87500000
-0.21349899 -0.17227100 67.85000610
1.45572400 -0.17214400 67.80000305
-11.07450676 -0.07965000 67.87500000
-12.00279140 0.47645301 67.87500000
-11.44582081 0.47645301 67.87500000
-12.37410355 0.66182101 67.87500000
-10.88885021 0.66182101 67.87500000
-11.43738937 1.12441146 67.82500458
-11.90777016 2.14436817 67.86250305
1.27027202 2.97562599 67.80000305
-13.48804665 3.25696898 67.87500000
-12.65259075 3.25696898 67.87500000
1.08521998 3.34718490 67.82500458
-13.76653194 3.44233704 67.87500000
0.34339300 5.11064577 67.87500000
-14.32350254 5.57406616 67.87500000
0.34326601 5.75731182 67.85000610
-13.85425663 6.68381023 67.85000610
-13.20469570 7.23970795 67.85000610
-12.09116459 7.23970795 67.85000610
-12.83351898 7.33235788 67.85000610
-12.37410355 7.61311102 67.87500000
-0.21342100 7.88535023 67.82500458
-11.52589798 7.97502422 67.80000305
-10.97358894 8.07057953 67.82500458
-9.95689583 8.07355595 67.85000610
-0.67747098 8.07355595 67.85000610
-12.91678715 8.16018772 67.80000305
-6.24512720 8.16620541 67.85000610
-12.46234131 8.25885487 67.85000610
-7.08027506 8.25885487 67.85000610
-7.45419693 8.44726563 67.87500000
-9.86592102 8.53837776 67.86250305
-9.30047798 8.62309456 67.80000305
-8.75057125 8.62945461 67.85000610
-5.68836117 8.62945461 67.85000610
-5.31718397 8.72210312 67.85000610
-1.23423600 8.72210312 67.85000610
-0.86274099 8.71888924 67.82500458
-7.91250610 8.81150532 67.82500458
-7.17571211 8.81800175 67.87500000
-5.04065800 8.91068554 67.87500000
-6.24742699 9.09605217 67.87500000
-6.70662498 9.18196774 67.82500458
-1.65148044 9.18366051 67.83750153
-5.78221989 9.27971077 67.86250305
-5.13348579 9.28141975 67.87500000
-3.83247566 9.37065125 67.85000610
-2.34776807 9.74125099 67.85000610
-3.74519300 -9.26558018 67.95000458
-1.88657200 -6.20363283 67.95000458
-2.16536498 -6.01806116 67.95000458
-1.23651004 -5.74181318 67.97500610
-3.56064010 -5.64899302 67.97500610
-0.86433101 -5.46134186 67.95000458
-1.32898605 -5.36855602 67.95000458
-4.21139717 -5.27771091 67.97500610
-3.00284910 -5.27771091 67.97500610
-2.07319689 -5.27771091 67.97500610
-1.79298198 -5.18107700 67.92500305
-3.93250108 -5.09207010 67.97500610
-6.43545294 -4.90101624 67.90000153
-6.06846905 -4.99741077 67.95000458
-3.56064010 -4.90642881 67.97500610
-2.72295189 -4.90462494 67.95000458
-2.16377211 -4.90101624 67.90000153
-6.99777889 -4.81183910 67.95000458
-7.93000603 -4.62796783 67.97500610
-1.65391493 -4.62541485 67.93750000
-4.95511913 -4.25668621 67.97500610
-3.93250108 -4.25668621 67.97500610
-1.51540601 -4.25668621 67.97500610
-2.90774298 -4.16080379 67.92500305
-6.25663185 -4.07104588 67.97500610
-3.55802107 -4.06805086 67.92500305
-8.48467541 -3.97676206 67.95000458
-5.65132666 -3.97749352 67.96250916
-4.76918793 -3.97822499 67.97500610
-4.30436182 -3.88540506 67.97500610
-1.51457000 -3.88326168 67.93750000
-2.81484699 -3.78979492 67.92500305
-1.05058002 -3.79258394 67.97500610
-6.44019222 -3.69840336 67.95000458
-1.79331148 -3.65134692 67.93750000
-4.25395679 -3.51089191 67.91250610
-2.07319689 -3.42130303 67.97500610
-7.55258608 -3.32603407 67.92500305
-5.97773600 -3.32848191 67.97500610
-1.74682903 -3.32664585 67.93750000
-6.34259081 -3.23209190 67.90000153
-1.98023200 -3.05002093 67.97500610
-2.16616201 -2.77155995 67.97500610
-2.72195005 -2.58401704 67.92500305
-1.88726699 -2.58591890 67.97500610
-3.03271031 -2.46124172 67.95000458
-8.94603825 -2.30575991 67.92500305
-10.06079960 -2.21300793 67.92500305
-3.74243689 -2.21219301 67.90000153
-1.97950304 -2.12103701 67.95000458
-2.81691909 -1.84335494 67.97500610
-9.88227463 -1.75053501 67.97500610
-2.90881300 -1.47153199 67.95000458
-10.43622684 -1.28595996 67.95000458
-9.32448387 -1.28643298 67.97500610
-1.51540601 -1.28643298 67.97500610
-8.95262241 -1.00797200 67.97500610
-1.14354503 -1.00797200 67.97500610
-9.50691605 -0.91481501 67.95000458
-1.42087102 -0.91414201 67.90000153
-0.49278799 -0.82233101 67.97500610
-0.02795700 -0.82218003 67.96250916
-11.64861393 -0.63669002 67.97500610
1.08642006 -0.45055199 67.90000153
-9.51041317 -0.35822901 67.97500610
0.43686399 -0.35822901 67.97500610
-12.01605415 -0.26531100 67.95000458
0.06500300 -0.26540801 67.97500610
-11.36553669 -0.17252401 67.95000458
-12.38322067 0.01304300 67.92500305
-12.66191196 0.56955600 67.92500305
1.73709798 0.75506002 67.92500305
-12.02047539 0.84843701 67.97500610
-11.45846844 0.84812498 67.95000458
-12.29032421 1.03331697 67.92500305
-10.90489292 1.12689805 67.97500610
-11.73726177 1.21926999 67.95000458
1.55244601 1.21971798 67.97500610
-12.00721169 1.58924401 67.90000153
-11.63576126 1.58924401 67.90000153
-12.15320587 2.33227587 67.93750000
-11.83454418 2.51920390 67.97500610
1.36601400 2.51827788 67.95000458
-12.57826710 2.70484495 67.97500610
-14.15346909 3.26056790 67.95000458
-12.24836540 3.26056743 67.95000458
0.99392349 3.95499206 67.92500305
0.62279397 4.56125402 67.97500610
0.62279397 4.93253517 67.97500610
-14.98984718 5.39465189 67.95000458
0.43654299 5.39266777 67.92500305
-13.31708908 6.50808811 67.95000458
-13.68881130 6.97201920 67.95000458
-12.67123032 6.97458506 67.97500610
-12.38322067 7.06220579 67.92500305
0.06495500 7.06220579 67.92500305
-0.12092700 7.34586620 67.97500610
-12.02047539 7.53150702 67.97500610
-11.72862434 7.61591482 67.90000153
-0.67821902 7.71147203 67.92500305
-10.52528381 7.89697599 67.92500305
-13.13122654 7.99266911 67.95000458
-11.74157906 8.08842945 67.97500610
-10.62599659 8.18124962 67.97500610
-9.22812271 8.17824078 67.95000458
-10.16117096 8.36688995 67.97500610
-8.67372704 8.36688995 67.97500610
-11.46268368 8.45971107 67.97500610
-11.09082222 8.45971107 67.97500610
-8.29575920 8.45348835 67.92500305
-10.71502018 8.54938602 67.95000458
-9.04226112 8.54938602 67.95000458
-6.81442308 8.55253124 67.97500610
-6.16139984 8.54938602 67.95000458
-6.53312302 8.73495865 67.95000458
-8.48155403 8.82449722 67.92500305
-6.90738821 8.92381382 67.97500610
-1.05058002 8.92381382 67.97500610
-8.20588207 9.01331711 67.95000458
-7.64829588 9.01331711 67.95000458
-4.76918793 9.10945415 67.97500610
-6.34726095 9.38446236 67.95000458
-4.30357075 9.38618851 67.96250916
-6.06400299 9.47027493 67.90000153
-3.18819356 9.47899246 67.96250916
-1.77024353 9.47637749 67.94375610
-5.79180479 9.57355690 67.97500610
-4.76918793 9.66637611 67.97500610
-3.92816210 9.65571022 67.90000153
-2.90881300 9.66282082 67.95000458
-6.25433111 9.75560760 67.95000458
-5.60587502 9.85201740 67.97500610
-5.04808378 9.85201740 67.97500610
0.80842698 9.94118023 67.95000458
-1.74974704 -5.93399382 68.05000305
-2.44730592 -5.83999825 68.03750610
-5.51899195 -5.56230307 68.05000305
-2.72695899 -5.56230307 68.05000305
-1.70321298 -5.56230307 68.05000305
-4.49524689 -5.37645721 68.05000305
-7.09592676 -5.18679714 68.00000000
-1.05212498 -5.19251823 68.07500458
-5.51899195 -5.00476599 68.05000305
-4.68310213 -5.00660419 68.07500458
-1.51735651 -5.00568485 68.06250000
-1.88934898 -4.81892014 68.05000305
-1.23832905 -4.82069016 68.07500458
-6.73134613 -4.72773314 68.07500458
-7.38034821 -4.63307381 68.05000305
-5.70722389 -4.63477612 68.07500458
-2.26078892 -4.63137197 68.02500153
-0.95867097 -4.63307381 68.05000305
-8.31407928 -4.54181910 68.07500458
-4.11994600 -4.53681517 68.00000000
-0.58661503 -4.54181910 68.07500458
-7.84856892 -4.35590601 68.07500458
-6.72887278 -4.35430622 68.05000305
-5.98433113 -4.35430622 68.05000305
-5.52101898 -4.35590601 68.07500458
-2.07472205 -4.35270596 68.02500153
-4.21759176 -4.26294899 68.07500458
-1.05212498 -4.26294899 68.07500458
-5.23786402 -4.16692877 68.02500153
-7.74977112 -4.07403994 68.02500153
-7.19421291 -4.07553720 68.05000305
-6.63824415 -3.98407793 68.07500458
-5.98213291 -3.88826299 68.02500153
-2.44775510 -3.88969111 68.05000305
-7.37763691 -3.70248604 68.02500153
-3.65763688 -3.75030756 68.05000305
-8.31102562 -3.61092305 68.05000305
-5.14294004 -3.60826993 68.00000000
-8.68010712 -3.51670790 68.02500153
-3.19347000 -3.51929307 68.07500458
-2.63292289 -3.51670790 68.02500153
-0.77253503 -3.51799989 68.05000305
-4.02842808 -3.33092999 68.02500153
-3.65898108 -3.33337903 68.07500458
-3.56326008 -3.05226398 68.02500153
-1.61014605 -3.05338597 68.05000305
-3.19347000 -2.86859393 68.07500458
-3.75070500 -2.68169498 68.05000305
-9.05224133 -2.58782101 68.02500153
-3.37967396 -2.58972311 68.07500458
-1.60955405 -2.44848800 68.02500153
-2.54175711 -2.31085205 68.07500458
-3.19347000 -2.03198099 68.07500458
-2.35468793 -2.03123498 68.05000305
-8.86617565 -1.93760002 68.02500153
-1.88934898 -1.84538901 68.05000305
-2.54082298 -1.75246704 68.05000305
-10.73473072 -1.66015303 68.07500458
-1.42374849 -1.56633306 68.03750610
-2.07472205 -1.47315705 68.02500153
-1.14480698 -1.38077497 68.05000305
-9.80011082 -1.28785205 68.05000305
-0.67971700 -1.28832603 68.07500458
-1.76504958 -1.13285732 68.04166412
-0.30730900 -1.10241199 68.07500458
-11.85195446 -0.91649801 68.07500458
-10.73473072 -0.91649801 68.07500458
-10.35471153 -0.91582501 68.02500153
-9.80371094 -0.82354099 68.07500458
0.25130299 -0.82354099 68.07500458
-10.92093468 -0.63762701 68.07500458
-10.54465294 -0.63739300 68.05000305
-9.33820057 -0.63762701 68.07500458
-11.29334259 -0.54466999 68.07500458
-10.36232281 -0.35875601 68.07500458
1.46109200 -0.35862401 68.05000305
-12.12234974 0.19884001 68.02500153
-11.38226318 0.19891299 68.05000305
1.64722705 0.19891299 68.05000305
-11.19612789 0.47768101 68.05000305
1.36752105 1.59217000 68.02500153
-12.02931690 1.87083602 68.02500153
-12.41056538 2.42995310 68.07500458
-12.03815842 2.89473796 68.07500458
-13.15538311 3.08065200 68.07500458
1.08922005 3.63839412 68.07500458
-15.20362473 4.10317898 68.07500458
-15.01742172 5.03274822 68.07500458
-14.63156796 5.49248600 68.01249695
-14.07605553 5.77216196 68.02500153
-14.36570740 5.96231794 68.07500458
-14.17429733 6.42474318 68.05000305
0.34427801 6.42474318 68.05000305
-13.61088943 6.51527119 68.02500153
-13.42975330 6.79643393 68.05000305
0.34402499 6.79144001 68.00000000
-13.14088821 6.97714901 68.00000000
-13.43468761 7.26371622 68.07500458
-12.30841827 7.35127020 68.02500153
-13.05268669 7.53704596 68.02500153
-12.68055153 7.53704691 68.02500153
-0.30708399 7.62993479 68.02500153
-11.29334259 7.72849989 68.07500458
-12.78062725 8.05236244 68.06250000
-9.70704269 8.19027615 68.05000305
-0.44688851 8.19178009 68.06250000
-12.13125992 8.37919903 68.07500458
-0.77253503 8.37612247 68.05000305
-9.89681339 8.75102615 68.07500458
-1.51596296 8.83424091 68.00000000
-0.67946798 8.84073639 68.05000305
-9.61750698 8.93694115 68.07500458
-5.42592478 8.93365955 68.05000305
-6.54514217 9.02989769 68.07500458
-1.42453301 9.12285423 68.07500458
-2.81795502 9.20565891 68.00000000
-3.56587791 9.49468327 68.07500458
-5.33481598 9.58764076 68.07500458
-1.98241699 9.67704105 68.05000305
-3.65898108 9.86651134 68.07500458
-3.28536606 9.86288834 68.05000305
-4.58494282 9.94849396 68.00000000
-2.82002711 9.95580959 68.05000305
-3.14866161 -6.03245163 68.11250305
-2.82313490 -6.03355885 68.12500000
-3.29019403 -5.75659513 68.15000153
-5.24556398 -5.66145802 68.12500000
-3.01058006 -5.57047701 68.15000153
-3.66435599 -5.38633299 68.17500305
-6.27504110 -5.29324007 68.17500305
-2.63872910 -5.29324007 68.17500305
-5.15617609 -4.92086601 68.17500305
-7.76543617 -4.82688713 68.16250610
-3.28898597 -4.82423115 68.12500000
-2.91737509 -4.73294210 68.15000153
-2.54455709 -4.73294210 68.15000153
-5.15050316 -4.54348803 68.10000610
-1.42557895 -4.54515505 68.12500000
-6.27504110 -4.45539808 68.17500305
-2.91844606 -4.36230516 68.17500305
-8.41953182 -4.26921082 68.17500305
-7.48714399 -4.17611694 68.17500305
-3.19464302 -4.17152309 68.10000610
-2.63679409 -4.17305517 68.12500000
-8.13981533 -4.08302402 68.17500305
-1.33273506 -4.08102751 68.14167023
-0.77395499 -4.08302402 68.17500305
-2.17173910 -3.80234790 68.15000153
-1.42662597 -3.71064997 68.17500305
-6.64068222 -3.42759395 68.10000610
-8.87920856 -3.24280190 68.12500000
-2.45135188 -3.24399209 68.15000153
-9.06887531 -2.96481395 68.15000153
-2.45225191 -2.77971506 68.17500305
-2.91844606 -2.68662095 68.17500305
-10.28430653 -2.40734005 68.17500305
-9.25868034 -2.40734005 68.17500305
-2.26438928 -2.46788573 68.13333893
-1.33338702 -2.40734005 68.17500305
-1.73720169 -2.12779975 68.16667175
-10.56402206 -2.03496599 68.17500305
-9.25528431 -2.03421998 68.15000153
-1.33338702 -2.03496599 68.17500305
-10.27676296 -1.94044805 68.12500000
-2.17173910 -1.75504196 68.15000153
-1.14690900 -1.75568604 68.17500305
-9.44515800 -1.66259205 68.17500305
-11.40317059 -1.56949902 68.17500305
-10.36993408 -1.56834805 68.12500000
-9.06887531 -1.56892300 68.15000153
-11.77612686 -1.19712400 68.17500305
-10.04382038 -1.10322094 68.12500000
-11.03021717 -0.91784400 68.17500305
-0.77310300 -0.91683400 68.10000610
0.53138798 -0.73165703 68.17500305
-10.19106770 -0.63856298 68.17500305
-0.02804400 -0.54547000 68.17500305
-11.58539772 -0.35915101 68.15000153
-9.81091213 -0.35901901 68.12500000
-10.65726089 0.10618500 68.17500305
-12.32877254 0.47829551 68.13750458
-12.52203560 0.75783902 68.17500305
-11.02617168 0.85062099 68.15000153
1.55587196 0.94333398 68.12500000
-12.14908123 1.13021302 68.17500305
-11.30578518 1.12979901 68.15000153
-12.32651138 1.40846002 68.12500000
1.37053704 2.80589700 68.17500305
-12.50826073 2.98879290 68.10000610
1.27589297 3.17477489 68.10000610
0.81050903 4.19921780 68.12500000
0.43814901 5.78489017 68.17500305
-14.00357819 6.05972195 68.12500000
-13.91806602 6.62151718 68.16250610
-13.73413944 7.27438593 68.17500305
-12.98346710 7.27171803 68.15000153
-12.61064816 7.27171803 68.15000153
-12.42879677 7.64675999 68.17500305
-11.96040916 7.83151054 68.16250610
-11.39898872 8.01619339 68.15000153
-11.02617168 8.01619339 68.15000153
-10.18733025 8.01619434 68.15000153
-0.12128300 8.11222839 68.17500305
-10.84373856 8.29841518 68.17500305
-12.70385265 8.38843060 68.15000153
-9.35191917 8.39150810 68.17500305
-7.20214176 8.47837925 68.12500000
-8.41953182 8.57769585 68.17500305
-5.89559317 8.66125107 68.10000610
-9.25868034 8.76388264 68.17500305
-8.78926182 8.76066875 68.15000153
-7.38848209 8.75745392 68.12500000
-6.27043819 8.85048008 68.12500000
-8.51277065 9.04316330 68.17500305
-7.25138664 9.03984642 68.15000153
-5.15428400 9.03984642 68.15000153
-4.40541410 9.12620544 68.10000610
-6.92517090 9.22596455 68.15000153
-6.08632994 9.22596455 68.15000153
-5.52507496 9.22258091 68.12500000
-1.70571601 9.22596455 68.15000153
-4.87645912 9.32244396 68.17500305
-4.03286886 9.40517902 68.10000610
-2.63776112 9.41208363 68.15000153
-4.54762936 9.50340080 68.13749695
-5.90208578 9.88100529 68.17500305
-3.94407201 9.88100529 68.17500305
-2.45045304 9.87375832 68.12500000
-1.98897099 -6.32653522 68.27500153
-1.61487806 -6.23102188 68.25000000
-2.54922390 -6.14007378 68.27500153
-2.17492509 -6.04463005 68.25000000
-1.42819500 -5.95143414 68.25000000
-4.97516489 -5.85823822 68.25000000
-3.57504511 -5.85823822 68.25000000
-2.17492509 -5.67184591 68.25000000
-4.79023600 -5.58069420 68.27500153
-4.22688580 -5.48344517 68.22500610
-1.70884502 -5.34761906 68.27500153
-6.83697891 -5.20205307 68.20000458
-5.25133896 -5.29518080 68.20000458
-0.77494800 -5.25341892 68.26249695
-5.81523609 -5.01947498 68.25000000
-6.47099495 -4.92808294 68.27500153
-8.15175438 -4.83485413 68.27500153
-6.93787289 -4.83485413 68.27500153
-6.09079504 -4.82954216 68.20000458
-4.79023600 -4.74162292 68.27500153
-5.44187117 -4.64669085 68.25000000
-1.98897099 -4.55516291 68.27500153
-1.14859200 -4.55516291 68.27500153
-7.58872223 -4.46029902 68.25000000
-7.21799898 -4.27547312 68.27500153
-6.46862602 -4.18071079 68.25000000
-4.78848219 -4.18071079 68.25000000
-2.26909804 -4.18224287 68.27500153
-5.91074324 -4.08901310 68.27500153
-5.44386482 -4.08901310 68.27500153
-3.38836193 -3.99431896 68.25000000
-8.70562744 -3.80653310 68.22500610
-6.27964211 -3.80653310 68.22500610
-5.25326395 -3.80653310 68.22500610
-0.86846501 -3.80932212 68.27500153
-1.14859200 -3.62286210 68.27500153
-2.36247301 -3.52963305 68.27500153
-6.19086885 -3.43640208 68.27500153
-1.70884502 -3.43640208 68.27500153
-10.11264038 -3.34317207 68.27500153
-10.24706364 -3.06179905 68.23750305
-2.17572188 -2.97025204 68.27500153
-1.89490199 -2.78277206 68.25000000
-1.52097905 -2.78175306 68.22500610
-2.64139032 -2.54953575 68.24375153
-8.89550018 -2.40998793 68.25000000
-3.15440559 -2.40954685 68.23750305
-1.98787904 -2.40954685 68.23750305
-2.82935095 -2.22441101 68.27500153
-9.82891273 -1.94400895 68.25000000
-1.61428595 -1.85013497 68.22500610
-10.94499779 -1.47748804 68.22500610
-1.83200264 -1.47748768 68.22500610
-0.86846501 -1.47857106 68.27500153
-10.66507721 -1.29116404 68.22500610
-9.45554829 -1.29163694 68.25000000
-1.42871797 -1.29211104 68.27500153
-8.99213409 -1.10564995 68.27500153
-1.05482996 -1.10524499 68.25000000
-0.02807050 -1.15165806 68.23750305
-11.55571079 -0.82565749 68.25000000
-0.12141700 -0.82565802 68.25000000
1.09122002 -0.63879800 68.20000458
0.25204101 -0.45304000 68.27500153
-11.97576332 -0.26648200 68.25000000
-11.50484180 -0.08006100 68.22500610
1.55815601 -0.08006100 68.22500610
-12.82052994 0.94541103 68.27500153
-12.44702816 1.13187099 68.27500153
-11.87806988 1.41052794 68.22500610
-12.25578690 1.69063199 68.25000000
1.46592200 1.78448200 68.27500153
-12.26027679 2.06417203 68.27500153
-11.97137642 2.34214592 68.22500610
1.37254703 2.34386206 68.27500153
-12.16690159 2.62355304 68.27500153
-12.72715473 2.71678305 68.27500153
-13.94103622 3.27616310 68.27500153
-13.19403362 3.36939311 68.27500153
-15.15491772 5.23399401 68.27500153
-14.78141689 5.60691500 68.27500153
-14.59466553 5.88660479 68.27500153
0.43863100 6.16403723 68.25000000
-13.66091061 6.81890488 68.27500153
0.25176400 7.09079790 68.20000458
-13.28497505 7.47014856 68.26249695
-0.21483700 7.47151709 68.27500153
-13.10065746 7.75120592 68.27500153
-12.63377953 7.84443617 68.27500153
-0.49478200 7.84156322 68.25000000
-12.35365295 8.03089619 68.27500153
-11.78476334 8.35108185 68.22500610
-11.13569164 8.30754375 68.25000000
-10.47718334 8.36558247 68.21667480
-9.83251381 8.40381718 68.27500153
-0.49496299 8.40381718 68.27500153
-10.19854164 8.58398628 68.22500610
-11.69145584 8.67714787 68.22500610
-11.22903347 8.68032837 68.25000000
-7.03124905 8.68350792 68.27500153
-6.65530920 8.68032837 68.25000000
-1.05521595 8.77673721 68.27500153
-5.72189522 8.86671925 68.25000000
-1.05521595 9.24288654 68.27500153
-6.65530920 9.33269882 68.25000000
-5.25326395 9.32927990 68.22500610
-6.09749317 9.52257824 68.27500153
-4.97334194 9.60876656 68.22500610
-3.01334095 9.79329491 68.21250916
-1.70884502 9.70903778 68.27500153
-5.34657097 9.88825130 68.22500610
-0.49568799 -8.95006657 68.37500000
-3.01941490 -6.24015188 68.35000610
-1.14985299 -6.05348682 68.35000610
-1.71072197 -5.86682177 68.35000610
-5.54535103 -5.77560091 68.37500000
-2.83142304 -5.77137709 68.32500458
-0.86910099 -5.77137709 68.32500458
-5.07778883 -5.58886814 68.37500000
-3.95419598 -5.58682394 68.35000610
-3.39456797 -5.49550104 68.37500000
-4.79549885 -5.21349382 68.35000610
-1.33583200 -5.20968008 68.30000305
-3.29864192 -5.11828899 68.32500458
-2.83245897 -5.12016201 68.35000610
-1.05598903 -5.02499104 68.32500458
-7.41017294 -4.83839417 68.32500458
-1.33729899 -4.84193516 68.37500000
-0.77537400 -4.83662415 68.30000305
-6.66262197 -4.55849791 68.32500458
-8.06280518 -4.46438313 68.31250000
-2.45764709 -4.46519995 68.32500458
-0.77622497 -4.46846819 68.37500000
-1.71072197 -4.37350178 68.35000610
-6.85452318 -4.28173399 68.37500000
-4.51671600 -4.28173399 68.37500000
-1.99188399 -4.04831886 68.37500000
-1.61724401 -4.04683876 68.35000610
-1.05618250 -4.04607248 68.33750153
-8.34766579 -3.90684009 68.35000610
-5.82588720 -3.81490207 68.37500000
-6.57398605 -3.72153497 68.37500000
-3.30105591 -3.72153497 68.37500000
-1.85126901 -3.72085500 68.36250305
-5.54129505 -3.62551498 68.32500458
-8.81505585 -3.53350997 68.35000610
-1.33729899 -3.34806800 68.37500000
-1.80288005 -3.06460404 68.30000305
-9.28414345 -2.97405863 68.36250305
-9.56637764 -2.69450212 68.37500000
-9.09881783 -2.60113597 68.37500000
-1.15027404 -2.60113597 68.37500000
-1.71051371 -2.53763461 68.34166718
-0.86973703 -2.41440201 68.37500000
-10.59113979 -2.32018709 68.35000610
-1.14985299 -2.22685504 68.35000610
-10.12745190 -2.13430309 68.37500000
-10.96906185 -1.94756901 68.37500000
-9.47286606 -1.94756901 68.37500000
-10.12374878 -1.76019204 68.35000610
-9.18896866 -1.76019204 68.35000610
-1.89767802 -1.76019204 68.35000610
-10.68852520 -1.66746998 68.37500000
-0.49550700 -1.38686204 68.35000610
-11.15404701 -1.24710000 68.36250305
-9.84331512 -1.20019698 68.35000610
-0.77594101 -1.20019698 68.35000610
-11.34311199 -1.01390302 68.37500000
-9.65989113 -0.92053699 68.37500000
-10.77415371 -0.73326701 68.32500458
-11.15608692 -0.64043701 68.37500000
0.81318599 -0.64020300 68.35000610
-11.33481693 -0.36007300 68.32500458
1.37430596 -0.36027098 68.36250305
-12.26925468 -0.26677501 68.32500458
-11.06257534 -0.17360400 68.37500000
-12.65228367 0.19986300 68.37500000
-11.99331093 0.10645700 68.35000610
1.46753299 1.41311204 68.35000610
-11.98892403 1.87908697 68.32500458
-12.55417919 2.43976998 68.35000610
-12.91863441 3.09083390 68.30000305
1.09362102 3.46642709 68.35000610
0.99977702 4.02494907 68.32500458
-15.27062607 4.77482700 68.37500000
0.43927401 5.51974201 68.35000610
-14.33550453 6.08196020 68.37500000
-14.23157787 6.54400396 68.32500458
-13.39548206 7.01306200 68.35000610
0.15872400 7.38098812 68.30000305
-12.82522392 7.56751585 68.30000305
-12.18472099 7.76255894 68.37500000
-0.12155000 7.75688314 68.32500458
-10.68070889 8.03677654 68.32500458
-11.99769783 8.13602543 68.37500000
-11.61939812 8.13305092 68.35000610
-10.12745190 8.22939301 68.37500000
-10.96371460 8.56756592 68.34167480
-9.55938244 8.59656811 68.32500458
-9.00201225 8.59971428 68.35000610
-6.10419178 8.59971428 68.35000610
-10.68461800 8.69304657 68.35000610
-10.22096443 8.88295937 68.37500000
-9.74983692 8.87971115 68.35000610
-8.25116825 8.87646294 68.32500458
-6.00631714 8.96647930 68.30000305
-6.38696098 9.06969166 68.37500000
-10.02660179 9.15635777 68.32500458
-5.73027897 9.15970898 68.35000610
-4.32969093 9.34979153 68.37500000
-5.72818279 9.52955246 68.32500458
-3.76448393 9.52606487 68.30000305
-2.26992798 9.52606487 68.30000305
-3.39332700 9.62637138 68.35000610
-4.32494211 9.71259212 68.30000305
-1.99067032 9.81064320 68.33333588
-4.98063183 9.90274429 68.32500458
-4.60854197 9.99970055 68.35000610
-3.29984999 9.99970055 68.35000610
-1.71322501 -6.43621922 68.45000458
-5.17886400 -6.06455708 68.47499847
-3.21106195 -5.87540483 68.45000458
-2.36939406 -5.87755108 68.47499847
-4.24237394 -5.69054508 68.47499847
-1.15069497 -5.68431187 68.40000153
-1.85329998 -5.59397650 68.43750000
-6.30265284 -5.41003513 68.47499847
-5.36616278 -5.41003513 68.47499847
-2.83763909 -5.41003513 68.47499847
-1.05753505 -5.31265020 68.42500305
-6.58360100 -5.22302914 68.47499847
-6.02170610 -5.22302914 68.47499847
-7.32475996 -5.12390709 68.40000153
-7.74997520 -5.03326416 68.43750000
-5.55143309 -5.03418398 68.45000458
-5.92805719 -4.84901619 68.47499847
-5.08521605 -4.84901619 68.47499847
-0.49641299 -4.75551319 68.47499847
-8.45658112 -4.66201019 68.47499847
-7.04669714 -4.56517076 68.42500305
-6.39630222 -4.56850576 68.47499847
-7.33279181 -4.47500277 68.47499847
-5.92156410 -4.47010183 68.40000153
-2.74398994 -4.38150120 68.47499847
-0.49641299 -4.38150120 68.47499847
-8.64072323 -4.19296312 68.45000458
-1.52655196 -3.63347507 68.47499847
-0.30888900 -3.63082194 68.42500305
-1.99334097 -3.44395208 68.42500305
-0.68371099 -3.35296512 68.47499847
-9.00859642 -3.25589204 68.40000153
-10.42321014 -3.16595888 68.47499847
-1.43237996 -3.07133389 68.45000458
-9.38964176 -2.41705108 68.45000458
-1.43290305 -2.32442999 68.47499847
-9.01847458 -2.23092699 68.47499847
-1.62020099 -2.04392099 68.47499847
-1.24537802 -1.95006204 68.46250153
-0.96395397 -1.76212394 68.42500305
-11.07066536 -1.66868901 68.42500305
-9.57687092 -1.66929901 68.45000458
-1.33778703 -1.66807902 68.40000153
-0.12172800 -1.38838398 68.42500305
-12.00647163 -0.82777500 68.42500305
-11.54489136 -0.54777002 68.46250153
-9.95496559 -0.45436701 68.47499847
-10.60276127 -0.36059999 68.42500305
-11.73429680 -0.26736099 68.47499847
-10.79386520 0.01314400 68.45000458
1.75116396 0.20015500 68.47499847
-12.75045586 0.57353902 68.40000153
1.65690899 0.76089603 68.45000458
-12.75045586 1.22734404 68.40000153
-12.10889339 1.41569698 68.47499847
-12.46981525 1.88115001 68.40000153
1.46860600 2.62835598 68.40000153
-12.47893143 2.72374606 68.45000458
-13.69592571 3.09762192 68.45000458
0.81407851 4.45131397 68.42500305
0.53333700 5.05862379 68.42500305
0.25259501 6.74045181 68.42500305
-13.87808514 7.02075720 68.42500305
-13.49882603 7.29839420 68.40000153
-13.41998005 7.68040895 68.47499847
-0.30911499 7.96091795 68.47499847
-12.95173454 8.05442142 68.47499847
-11.25782585 8.04854012 68.42500305
-0.59006202 8.14792538 68.47499847
-12.48348904 8.24142742 68.47499847
-0.87005502 8.51260376 68.40000153
-11.91288853 8.60914993 68.42500305
-8.63441181 8.69940567 68.40000153
-9.38278294 8.97960758 68.40000153
-7.70175982 8.98289013 68.42500305
-1.15195596 8.98945427 68.47499847
-9.67048740 9.17310905 68.45000458
-9.00859642 9.16640854 68.40000153
-8.17264938 9.17310905 68.45000458
-6.86454821 9.26996326 68.47499847
-5.45981216 9.26996326 68.47499847
-6.34830999 9.36175632 68.46250153
-1.33778703 9.35321045 68.40000153
-5.27155113 9.54872894 68.46250153
-4.05507612 9.64397621 68.47499847
-5.92589283 9.73392391 68.45000458
-2.46124411 9.73036861 68.42500305
-2.56042600 -6.35433292 68.57499695
-3.21692610 -6.16705322 68.57499695
-1.99771094 -6.16705322 68.57499695
-1.52822399 -6.07119989 68.55000305
-0.87228101 -5.97977400 68.57499695
-5.27828884 -5.79038286 68.55000305
-3.96721196 -5.79249477 68.57499695
-3.68383932 -5.69573879 68.53750610
-1.52766705 -5.60112906 68.52500153
-0.59092402 -5.60521507 68.57499695
-4.81128502 -5.41793489 68.57499695
-6.87457180 -5.32429600 68.57499695
-3.21692610 -5.32429600 68.57499695
-0.68471003 -5.23065615 68.57499695
-6.96327782 -5.03970003 68.52500153
-4.81128502 -4.94973707 68.57499695
-6.68699980 -4.85609818 68.57499695
-8.09378815 -4.66881800 68.57499695
-4.62034178 -4.66541386 68.52500153
-4.90506983 -4.57517815 68.57499695
-9.21249580 -4.47827101 68.52500153
-7.81100607 -4.48072147 68.56250000
-5.37400007 -4.48153782 68.57499695
-9.40678883 -4.20062017 68.57499695
-6.58840799 -4.29112816 68.52500153
-1.34121001 -4.29425907 68.57499695
-8.37514496 -4.10697985 68.57499695
-4.81128502 -4.10697985 68.57499695
-3.21692610 -4.10697985 68.57499695
-0.59070802 -4.10548306 68.55000305
-6.30725479 -4.01041412 68.52500153
-5.55954313 -4.01187706 68.55000305
-8.74390793 -3.91684198 68.52500153
-5.27636385 -3.82327104 68.52500153
-0.87228101 -3.82606101 68.57499695
-6.11982107 -3.72970009 68.52500153
-0.96536249 -3.54255652 68.52500916
-1.62256801 -3.35786200 68.57499695
-1.99771094 -3.17058206 68.57499695
-1.15363896 -3.17058206 68.57499695
-9.59436035 -2.98330307 68.57499695
-0.77849501 -2.98330307 68.57499695
-0.59070802 -2.74820137 68.55000305
-1.52878201 -2.60874391 68.57499695
-10.34464645 -2.23418498 68.57499695
-0.87132698 -2.13820505 68.50000763
-10.42701721 -1.85759306 68.50000763
-9.87571716 -1.85962605 68.57499695
-0.68445998 -1.76534295 68.55000305
-11.28250408 -1.48506701 68.57499695
-10.05228329 -1.48344302 68.50000763
-1.62079298 -1.48344302 68.50000763
-1.05908000 -1.48398495 68.52500153
-10.94624996 -1.39041305 68.52500916
-9.68461418 -1.39092004 68.55000305
-10.15337181 -1.11010396 68.55000305
-0.12199500 -1.11050904 68.57499695
-11.74714947 -1.01649797 68.55000305
-10.61825562 -1.01612699 68.52500153
0.15918800 -0.73514497 68.50000763
1.28432405 -0.64207602 68.55000305
0.44047898 -0.54837000 68.53750610
-12.22036171 -0.45503101 68.57499695
-12.49716187 -0.08044200 68.55000305
1.56557906 1.88527501 68.55000305
-12.12657738 2.16688204 68.57499695
-12.77841663 2.54051399 68.55000305
-13.05967140 2.91493702 68.55000305
-13.33849335 3.14836740 68.53750610
1.28408945 3.14835072 68.53750610
-15.21595860 3.94459796 68.55000305
1.00343502 4.22695494 68.57499695
0.62806201 4.78704786 68.55000305
0.53450602 5.91246986 68.57499695
0.44055900 6.37834311 68.55000305
-14.08066177 6.74783993 68.50000763
0.25296399 7.03101683 68.52500153
0.15930450 7.59521484 68.55000305
