7.86091900 1.31094694 86.17500305
-14.84927082 1.23880005 74.72499847
-14.10680866 1.24543095 75.12500000
-12.91291046 1.26946998 76.57500458
-12.53479099 1.27361405 76.82500458
-11.73990631 1.27858806 77.12500000
-11.48410320 1.27361405 76.82500458
-10.35872078 1.26449597 76.27500153
-9.66901970 1.25620699 75.77500153
-9.34313202 1.24045801 74.82499695
-9.11403847 1.23714197 74.62500000
-8.78720379 1.23424101 74.45000458
-8.22844601 1.24211597 74.92500305
-7.58822012 1.23797095 74.67500305
-6.95910215 1.23506999 74.50000763
-5.54008198 1.23672795 74.60000610
-5.39978600 1.22802401 74.07500458
-5.09070301 1.22678101 74.00000000
-3.84612012 1.21724904 73.42500305
-3.63162994 1.21269000 73.15000153
-3.32467008 1.21020305 73.00000000
-3.05623794 1.22263598 73.75000000
-2.84483504 1.21849203 73.50000000
-2.72751093 1.21103203 73.05000305
-2.50347805 1.19942701 72.34999847
-1.55479705 1.23175395 74.30000305
-0.64521199 1.24128699 74.87500000
-0.03074900 1.23921502 74.75000763
0.87445801 1.21849203 73.50000000
2.28796601 1.22180796 73.70000458
3.03516412 1.23880005 74.72499847
3.34510899 1.24004400 74.80000305
3.70937395 1.25952303 75.97499847
5.97476721 1.27734399 77.05000305
6.74846697 1.32583499 79.97500610
6.98861313 1.35111701 81.50000763
7.61462402 1.38385904 83.47500610
-16.50279999 1.35070705 75.27500153
-15.25008202 1.35833299 75.70000458
-15.08152485 1.35250103 75.37500000
-14.55727673 1.34218395 74.80000305
-13.83990383 1.35205305 75.35000610
-13.53523731 1.35250103 75.37500000
-12.93385887 1.35429502 75.47499847
-11.24828434 1.37537897 76.65000916
-10.83603096 1.37627602 76.70000458
-10.11349297 1.36371601 76.00000763
-7.26964521 1.33769798 74.55000305
-6.66013288 1.33814597 74.57500458
-2.41532993 1.30405295 72.67500305
-2.16376209 1.33276296 74.27500153
-2.07120395 1.33859503 74.60000610
-1.76512694 1.33859503 74.60000610
-1.34656405 1.32827699 74.02500153
-1.03615296 1.31975400 73.55000305
-0.73438400 1.31975400 73.55000305
0.17220201 1.32962298 74.10000610
0.37298900 1.32289398 73.72500610
1.17442203 1.31706202 73.40000153
1.26742494 1.30943596 72.97500610
1.66720998 1.30988503 73.00000000
2.17826796 1.31706202 73.40000153
2.40496802 1.33141696 74.20000458
4.01712418 1.36192203 75.90000916
4.86671400 1.36730504 76.20000458
5.30437088 1.37268806 76.50000763
5.71351814 1.37044501 76.37500000
6.17089176 1.40319204 78.20000458
6.40112019 1.40678096 78.40000153
7.32974005 1.46375203 81.57500458
-16.22084618 1.45590901 75.40000153
-15.95896626 1.46025395 75.62500000
-15.69524288 1.46459794 75.85000610
-15.00148964 1.44770300 74.97499847
-13.22159481 1.45494401 75.35000610
-12.46208191 1.48728597 77.02500153
-12.18153477 1.49163103 77.25000000
-11.76859283 1.47956300 76.62500000
-10.59852695 1.47714901 76.50000763
-9.63711929 1.45832300 75.52500153
-9.47386837 1.44915104 75.05000305
-8.61526775 1.44287503 74.72499847
-7.92632008 1.44770300 74.97499847
-6.35841799 1.44094503 74.62500000
-6.06440401 1.44384098 74.77500153
-5.75375795 1.44287503 74.72499847
-5.42165518 1.43611705 74.37500000
-4.78385305 1.42791104 73.95000458
-4.47589779 1.42646301 73.87500763
-4.16714621 1.42453206 73.77500916
-2.96439099 1.42839396 73.97500610
-2.64828801 1.42163503 73.62500763
-2.42530107 1.40908396 72.97500610
-0.73887700 1.42887604 74.00000000
-0.33823201 1.44673705 74.92500305
0.17319000 1.43901396 74.52500153
0.67456001 1.42163503 73.62500763
1.97211099 1.41342902 73.20000458
2.61583304 1.43708301 74.42500305
2.92511797 1.43901396 74.52500153
3.22763610 1.43756497 74.45000458
3.53784299 1.43949604 74.55000305
4.32425785 1.46411598 75.82500458
4.64300299 1.46652901 75.95000458
5.95732021 1.48342502 76.82500458
6.96717596 1.56886804 81.25000763
7.98623323 1.64127696 85.00000000
8.22163582 1.66541302 86.25000000
-14.40064716 1.55163205 75.05000305
-14.14436436 1.55731797 75.32500458
-12.71898460 1.55938494 75.42500305
-12.73663521 1.58729601 76.77500153
-11.72251701 1.57799196 76.32500458
-11.43178463 1.58109403 76.47500610
-11.11074448 1.58006001 76.42500305
-10.34853554 1.57540798 76.20000458
-9.87302780 1.56610501 75.75000763
-9.13235855 1.54594696 74.77500153
-8.33647442 1.55008197 74.97499847
-7.60346079 1.54698002 74.82499695
-7.08231497 1.54491305 74.72499847
-5.10102081 1.53302503 74.15000153
-3.95325804 1.52061999 73.55000305
-3.73677397 1.51441801 73.25000000
-3.42919898 1.51131701 73.09999847
-3.26459098 1.52785599 73.90000153
-2.66177702 1.52992404 74.00000000
-2.36214399 1.53250802 74.12500000
-1.97445703 1.54646397 74.80000305
-1.45562601 1.53871095 74.42500305
-1.04214096 1.52940702 73.97500610
-0.74337000 1.53922701 74.45000458
-0.64434999 1.54594696 74.77500153
-0.03074900 1.54542994 74.75000763
0.97630602 1.52165401 73.60000610
3.81579089 1.57178998 76.02500153
5.08679819 1.57902598 76.37500000
5.79892683 1.57385695 76.12500000
6.19456577 1.62295997 78.50000000
6.53324699 1.62709498 78.70000458
6.74424887 1.65242100 79.92500305
6.92430115 1.66947806 80.75000763
7.30727720 1.68136597 81.32500458
7.73341703 1.72685003 83.52500153
8.57302666 1.78267097 86.22500610
-16.64986992 1.66348100 75.47499847
-15.39417839 1.67284799 75.90000916
-14.78160954 1.65080798 74.90000153
-13.86286163 1.66348100 75.47499847
-13.53972721 1.66182804 75.40000153
-12.24742031 1.69709206 77.00000763
-11.96255112 1.68662298 76.52500153
-10.78305054 1.68221498 76.32500458
-10.10683918 1.67394996 75.95000458
-6.77119303 1.64584899 74.67500305
-2.17031598 1.64199197 74.50000763
-1.66700196 1.64805305 74.77500153
-1.24868906 1.63593102 74.22500610
0.37387401 1.62876701 73.90000153
1.26829398 1.60948205 73.02500916
1.56576204 1.60727799 72.92500305
2.27632499 1.61609399 73.32500458
2.39929509 1.63152301 74.02500153
2.81561804 1.63813496 74.32500458
3.11741805 1.63648200 74.25000000
3.41629791 1.63372695 74.12500000
4.12228489 1.67339897 75.92500305
4.85553694 1.67560303 76.02500153
5.40722799 1.68552101 76.47500610
5.93405581 1.68662298 76.52500153
6.71682501 1.75439596 79.60000610
7.68017912 1.82823098 82.95000458
7.88053417 1.84861803 83.87500763
8.46117210 1.87561703 85.09999847
-16.37267685 1.77005303 75.62500000
-16.08894539 1.77297902 75.75000763
-15.81980705 1.77766001 75.95000458
-13.22597980 1.76420200 75.37500000
-12.90387058 1.76244605 75.30000305
-12.50023365 1.76361704 75.35000610
-12.52255440 1.79638505 76.75000763
-11.78816223 1.78058600 76.07500458
-9.62754917 1.76595700 75.45000458
-9.38995743 1.76010597 75.20000458
-9.15983772 1.75542498 75.00000763
-8.83736610 1.75249898 74.87500000
-8.11784077 1.75191402 74.85000610
-6.54495001 1.74196696 74.42500305
-6.36267900 1.74781799 74.67500305
-6.06440401 1.75015903 74.77500153
-5.74413300 1.74606299 74.60000610
-5.42529917 1.74196696 74.42500305
-4.88664007 1.73143399 73.97500610
-4.56918716 1.72616804 73.75000000
-4.26515102 1.72558200 73.72500610
-3.34516501 1.71914601 73.45000458
-3.07281399 1.73553002 74.15000153
-0.94478601 1.73845601 74.27500153
-0.33789301 1.75191402 74.85000610
0.17330600 1.74547696 74.57500458
0.67501801 1.72441196 73.67500305
1.17282200 1.71563494 73.30000305
1.86752498 1.70919895 73.02500916
3.74803305 1.74781799 74.67500305
4.42211914 1.77239394 75.72499847
4.73124981 1.77180898 75.70000458
6.66830397 1.84963298 79.02500916
7.16065979 1.89410305 80.92500305
8.08818340 1.98597002 84.84999847
-16.95286369 1.89189804 76.37500000
-16.78774643 1.88508606 76.10000610
-15.16155910 1.87703598 75.77500153
-14.60106564 1.85845697 75.02500153
-14.36944866 1.86836600 75.42500305
-14.10192966 1.87393904 75.65000916
-12.17982101 1.89685202 76.57500458
-11.51374626 1.89066005 76.32500458
-11.20059109 1.89066005 76.32500458
-10.65068436 1.88570499 76.12500000
-10.33495426 1.88508606 76.10000610
-9.87302780 1.87641597 75.75000763
-8.53300762 1.85536098 74.90000153
-7.80812883 1.85350299 74.82499695
-7.49862194 1.85288405 74.80000305
-7.18691683 1.85164499 74.75000763
-5.10446119 1.83802104 74.20000458
-3.96131992 1.82563496 73.70000458
-3.74442601 1.81820405 73.40000153
-3.26017308 1.82811201 73.80000305
-2.77045012 1.83802104 74.20000458
-2.46352100 1.83616304 74.12500000
-2.07467389 1.85102606 74.72499847
-1.45855999 1.84730995 74.57500458
-0.74436897 1.84669101 74.55000305
0.97497898 1.82068098 73.50000000
2.48871207 1.82501602 73.67500305
2.70210099 1.83306706 74.00000000
3.20921111 1.83368599 74.02500153
3.50581098 1.82997000 73.87500763
3.72795606 1.83987904 74.27500153
5.07847309 1.88880205 76.25000763
5.72099876 1.89437497 76.47500610
6.17089176 1.93710601 78.20000458
6.29991817 1.94391799 78.47500610
6.53532219 1.95010996 78.72500610
6.80210686 1.96497297 79.32500458
7.39569378 2.00832295 81.07500458
7.59453487 2.03185511 82.02500153
8.05958652 2.09440303 84.55000305
8.69905281 2.10926509 85.15000153
-16.52512550 1.98246706 75.85000610
-15.51840019 1.98638797 76.00000763
-14.88901520 1.95829105 74.92500305
-13.79154491 1.97723997 75.65000916
-13.46333790 1.97462595 75.55000305
-12.68525696 1.96613204 75.22499847
-11.57246494 1.98704100 76.02500153
-10.95581818 1.98834801 76.07500458
-8.96663189 1.96286500 75.10000610
-8.30589771 1.95240998 74.70000458
-7.98602390 1.94914305 74.57500458
-6.84570694 1.94391596 74.37500000
-6.38610888 1.95894396 74.95000458
-2.26763105 1.94326198 74.35000610
-1.77163303 1.95698404 74.87500000
-0.13293600 1.95306301 74.72499847
0.37526599 1.93868804 74.17500305
0.47446099 1.92954004 73.82500458
1.26872802 1.90928400 73.05000305
2.07151389 1.91255200 73.17500305
3.89656401 1.97528005 75.57500458
4.11685610 1.98181403 75.82500458
4.61243677 1.97201300 75.45000458
4.91710901 1.97005200 75.37500000
5.04517078 1.97985399 75.75000763
5.30090380 1.99814904 76.45000458
5.94956493 2.00533700 76.72500610
6.11959982 2.02690005 77.55000305
7.03899288 2.07917309 79.55000305
7.24438000 2.10727000 80.62500000
7.79127598 2.16738391 82.92500305
8.02860737 2.20136189 84.22500610
8.32272434 2.21835089 84.87500763
-16.21391869 2.08604097 75.85000610
-15.91843700 2.08810401 75.92500305
-14.42183971 2.08191609 75.70000458
-14.14387035 2.08672810 75.87500000
-13.13595200 2.07504010 75.45000458
-12.58227634 2.10323000 76.47500610
-12.03961468 2.09979200 76.35000610
-10.11349297 2.09016609 76.00000763
-9.64669037 2.07916498 75.60000610
-9.41493034 2.07366490 75.40000153
-6.52516413 2.04066300 74.20000458
-6.06643105 2.05716395 74.80000305
-5.74028301 2.05028796 74.55000305
-5.42347717 2.04616308 74.40000153
-4.98612499 2.03378701 73.95000458
-4.76768017 2.02691102 73.70000458
-4.46377993 2.02622390 73.67500305
-4.17279482 2.03172398 73.87500763
-3.87492990 2.03447390 73.97500610
-3.45030904 2.02278590 73.55000305
-3.08420992 2.04684997 74.42500305
-1.25205302 2.04684997 74.42500305
-0.94605798 2.04547501 74.37500000
-0.54117900 2.05303788 74.65000153
0.17324799 2.05028796 74.55000305
1.56576204 2.00559711 72.92500305
2.27865291 2.01866102 73.40000153
3.29926991 2.02897406 73.77500916
3.71540809 2.03585005 74.02500153
6.09000778 2.12248111 77.17500305
6.37866688 2.14860797 78.12500763
6.61767483 2.15685892 78.42500305
6.75708914 2.16717196 78.80000305
7.73490191 2.26411796 82.32500458
8.94507408 2.34524894 85.27500916
-16.96951294 2.20693493 76.45000458
-16.59048462 2.19827509 76.15000916
-15.29540825 2.19178009 75.92500305
-14.71347237 2.16724205 75.07500458
-12.49589825 2.19250202 75.95000458
-11.79590988 2.19755292 76.12500000
-11.53260231 2.20693493 76.45000458
-11.18958473 2.20116210 76.25000763
-10.73007202 2.19250202 75.95000458
-10.43903255 2.19683194 76.10000610
-9.09047508 2.17301607 75.27500153
-8.74954605 2.16507697 75.00000763
-8.27810001 2.14919996 74.45000458
-7.96192980 2.14631295 74.35000610
-7.68262386 2.15352988 74.60000610
-7.37901783 2.15425205 74.62500000
-5.20593977 2.14198303 74.20000458
-3.26348591 2.13260102 73.87500763
-2.76951599 2.14126205 74.17500305
-2.46185899 2.13837504 74.07500458
-2.17177296 2.15208697 74.55000305
-1.56421399 2.15786099 74.75000763
0.67478901 2.12610602 73.65000153
0.87356502 2.11961102 73.42500305
2.48617792 2.12466192 73.60000610
2.79667592 2.13115811 73.82500458
3.59586000 2.12610602 73.65000153
4.31427813 2.18384099 75.65000916
4.70156193 2.17157197 75.22499847
5.12837791 2.17806792 75.45000458
5.27663708 2.19683194 76.10000610
5.61824512 2.20837903 76.50000763
6.31539106 2.23291612 77.35000610
6.44608116 2.24157691 77.65000153
6.93059778 2.26106191 78.32500458
7.32499886 2.31807590 80.30000305
7.53203821 2.34838700 81.35000610
7.88085604 2.38663697 82.67500305
8.56999874 2.45447612 85.02500916
-15.70041466 2.29394388 75.87500000
-14.57092571 2.27958298 75.40000153
-14.36559677 2.29621196 75.95000458
-13.83256340 2.29394388 75.87500000
-13.49897861 2.29016495 75.75000763
-12.81363678 2.27882791 75.37500000
-12.50023365 2.27807212 75.35000610
-12.26048374 2.31057310 76.42500305
-11.04168892 2.29621196 75.95000458
-9.79199886 2.29545593 75.92500305
-7.04914284 2.24859500 74.37500000
-6.39462996 2.26900196 75.05000305
-4.28539896 2.23952508 74.07500458
-3.99491310 2.24708295 74.32500458
-3.68251705 2.24254799 74.17500305
-3.56538200 2.23272204 73.85000610
-2.88450694 2.25312901 74.52500153
-1.97445703 2.26144409 74.80000305
-0.23466000 2.25464106 74.57500458
0.37652999 2.25010610 74.42500305
0.47542500 2.23650098 73.97500610
1.17002201 2.21080303 73.12500763
1.76946795 2.21004701 73.09999847
3.76058006 2.26522303 74.92500305
3.89914107 2.28638601 75.62500000
5.25583506 2.29167700 75.80000305
5.95537996 2.32190990 76.80000305
6.68848801 2.35819006 78.00000000
7.25430298 2.40429592 79.52500916
8.12687492 2.54110098 84.05000305
8.30311203 2.55999589 84.67500305
9.17294312 2.57662511 85.22500610
-16.73299599 2.41177201 76.32500458
-16.34992409 2.40150189 76.00000763
-16.00117302 2.39597201 75.82500458
-15.14655209 2.39202189 75.70000458
-14.95856667 2.37859297 75.27500153
-13.19253445 2.39439201 75.77500153
-12.54585648 2.38965201 75.62500000
-10.13012695 2.40545201 76.12500000
-9.55276489 2.39123201 75.67500305
-9.31798553 2.38412309 75.45000458
-8.72329807 2.36279392 74.77500153
-6.73492193 2.34699392 74.27500153
-6.47346401 2.36279392 74.77500153
-6.07454109 2.36674309 74.90000153
-5.74990797 2.35963392 74.67500305
-5.42165518 2.35015392 74.37500000
-5.08210421 2.33435512 73.87500763
-4.76606178 2.32803512 73.67500305
-3.27342606 2.34146500 74.10000610
-1.35702300 2.35726404 74.60000610
-1.14910805 2.34936404 74.35000610
-0.84320402 2.34699392 74.27500153
-0.53972900 2.35252404 74.45000458
0.07133800 2.35726404 74.60000610
1.46853995 2.30828595 73.05000305
1.97817302 2.32013512 73.42500305
3.09537601 2.32961512 73.72500610
4.50177813 2.38017297 75.32500458
5.49019718 2.40703201 76.17500305
6.18552113 2.43468094 77.05000305
6.52907419 2.44495010 77.37500000
6.86423397 2.45127010 77.57500458
7.67383099 2.58082509 81.67500305
8.00842857 2.61716294 82.82500458
8.71182346 2.69458008 85.27500916
-17.06290245 2.51846600 76.40000916
-15.56067276 2.49539089 75.70000458
-14.62407112 2.49456692 75.67500305
-14.17649269 2.50692892 76.05000305
-12.85613632 2.49291897 75.62500000
-12.50001144 2.50445700 75.97499847
-12.02384567 2.51352191 76.25000763
-11.71867657 2.51517010 76.30000305
-11.43178463 2.52093911 76.47500610
-11.18591690 2.51269794 76.22500610
-10.74419975 2.50692892 76.05000305
-10.45960903 2.51352191 76.25000763
-9.09047508 2.48138189 75.27500153
-8.58932686 2.45583391 74.50000763
-8.26698208 2.45089006 74.35000610
-7.95389795 2.44841695 74.27500153
-7.65945196 2.45171404 74.37500000
-7.35429811 2.45171404 74.37500000
-4.50619078 2.45171404 74.37500000
-4.42223883 2.46160293 74.67500305
-4.11309814 2.45995498 74.62500000
-3.80691791 2.45995498 74.62500000
-3.18599701 2.45336199 74.42500305
-2.66447401 2.44182491 74.07500458
-2.36453390 2.44594502 74.20000458
-2.17104506 2.45665908 74.52500153
-1.77340806 2.47066808 74.95000458
0.67570502 2.43111110 73.75000000
0.87356502 2.42039800 73.42500305
2.28408599 2.42534208 73.57500458
2.58771491 2.42699099 73.62500763
3.39671111 2.42946291 73.70000458
4.20664120 2.49127102 75.57500458
4.80444288 2.47973299 75.22499847
5.02518988 2.48714995 75.45000458
5.71351814 2.51764202 76.37500000
7.12203312 2.57368112 78.07500458
7.56813002 2.65526795 80.55000305
7.81174612 2.70141792 81.95000458
9.26497459 2.80195904 85.00000000
-16.74464607 2.57387090 74.97499847
-15.86078072 2.59704399 75.65000916
-14.90002155 2.59189510 75.50000763
-14.57334137 2.60734296 75.95000458
-13.84167862 2.60648489 75.92500305
-13.53016472 2.60648489 75.92500305
-13.25346947 2.61335111 76.12500000
-12.32860279 2.61592507 76.20000458
-10.78658390 2.62107491 76.35000610
-9.82424068 2.61506701 76.17500305
-8.93678284 2.56958008 74.85000610
-7.04677391 2.55241489 74.35000610
-6.65566778 2.55842304 74.52500153
-6.39036989 2.57472992 75.00000763
-5.55679083 2.56872201 74.82499695
-5.30384207 2.54554892 74.15000153
-3.72223401 2.57387090 74.97499847
-3.48431897 2.54984093 74.27500153
-3.09767795 2.56614709 74.75000763
-2.78911805 2.56443095 74.70000458
-1.46393800 2.56958008 74.85000610
-0.23466000 2.56013894 74.57500458
0.37741601 2.56099796 74.60000610
0.57873899 2.54898190 74.25000000
1.17242205 2.51551104 73.27500916
1.57381403 2.51636910 73.30000305
1.77975595 2.52409291 73.52500916
3.77689195 2.58331203 75.25000763
5.25063419 2.59961891 75.72499847
5.94762707 2.63309002 76.70000458
6.40665007 2.64939690 77.17500305
7.06958199 2.66055393 77.50000000
7.36075020 2.72921300 79.50000000
8.16828156 2.85966706 83.30000305
8.37417507 2.89142203 84.22500610
8.95031834 2.92918396 85.32500458
-16.52557373 2.65751100 74.45000458
-16.71655464 2.72176194 76.25000763
-16.36067963 2.71462297 76.05000305
-16.09956360 2.70569897 75.80000305
-15.33839989 2.69945192 75.62500000
-13.49706173 2.72443891 76.32500458
-13.34487343 2.73604012 76.65000916
-13.04738522 2.73960900 76.75000763
-12.88761520 2.72800899 76.42500305
-10.24432182 2.71997690 76.20000458
-9.45238972 2.70212889 75.70000458
-8.88902473 2.65751100 74.45000458
-6.08467913 2.67803502 75.02500153
-5.33424091 2.66197205 74.57500458
-5.08210421 2.63698602 73.87500763
-4.77576590 2.63520098 73.82500458
-4.63114309 2.66821909 74.75000763
-4.49626398 2.71016097 75.92500305
-4.15305805 2.68963599 75.35000610
-3.52653909 2.68338990 75.17500305
-2.07467389 2.66732693 74.72499847
-1.15219903 2.66107988 74.55000305
-0.94414997 2.64947891 74.22500610
-0.64090401 2.65483308 74.37500000
0.07150600 2.66911101 74.77500153
1.28131998 2.63341594 73.77500916
2.08566904 2.62984705 73.67500305
2.89175510 2.62984705 73.67500305
3.60440302 2.63520098 73.82500458
3.99330711 2.69320607 75.45000458
4.40460014 2.69231296 75.42500305
5.57601595 2.71016097 75.92500305
6.17749214 2.74674797 76.95000458
6.73853779 2.76102710 77.35000610
7.76885080 2.90916204 81.50000763
7.99150801 2.95021200 82.65000916
8.58763790 3.04123402 85.20000458
9.47512722 3.02695608 84.80000305
-16.39289284 2.72025895 73.40000153
-16.50096512 2.77214408 74.80000305
-15.72086811 2.79715991 75.47499847
-15.04798985 2.80642509 75.72499847
-14.38451099 2.81847000 76.05000305
-12.73291302 2.82124901 76.12500000
-12.10824490 2.82124901 76.12500000
-11.81915283 2.82680798 76.27500153
-11.54014587 2.83514690 76.50000763
-11.23360920 2.83699989 76.55000305
-10.93023014 2.83978009 76.62500000
-10.61238098 2.83885288 76.60000610
-9.30872154 2.79345393 75.37500000
-9.15373135 2.77770305 74.95000458
-8.57779789 2.75731897 74.40000153
-8.26698208 2.75546694 74.35000610
-7.95122004 2.75176001 74.25000000
-7.64400387 2.75083399 74.22500610
-7.34440994 2.75268698 74.27500153
-6.86641788 2.76473188 74.60000610
-6.58232498 2.77399707 74.85000610
-5.77878284 2.78140903 75.05000305
-5.47450399 2.78326201 75.10000610
-4.71121120 2.75731897 74.40000153
-4.17234898 2.80549788 75.70000458
-3.84262800 2.79160094 75.32500458
-3.21275091 2.78140903 75.05000305
-2.90192509 2.77862906 74.97499847
-2.67166901 2.75268698 74.27500153
-2.36692500 2.75268698 74.27500153
-1.98567605 2.78789401 75.22499847
-1.67647696 2.78696799 75.20000458
0.58068800 2.76102591 74.50000763
0.87891901 2.73786306 73.87500763
0.97597402 2.72674394 73.57500458
1.58508599 2.73601007 73.82500458
2.38795090 2.73044991 73.67500305
3.19512105 2.73137689 73.70000458
4.71250010 2.79437995 75.40000153
5.03184986 2.79993892 75.55000305
5.90110016 2.82032299 76.10000610
8.34434700 3.11032295 83.92500305
9.16756058 3.15664911 85.17500305
-16.89320564 2.87140203 74.72499847
-15.95896626 2.90598512 75.62500000
-14.88985729 2.91943407 75.97499847
-14.04472923 2.91655302 75.90000916
-13.73784065 2.91751289 75.92500305
-13.65936279 2.94537210 76.65000916
-12.41242123 2.92327690 76.07500458
-9.93819714 2.93000197 76.25000763
-9.61903763 2.92808008 76.20000458
-9.06213284 2.85122800 74.20000458
-1.36475396 2.88293004 75.02500153
-1.05376303 2.87428403 74.80000305
-0.94701201 2.86083388 74.45000458
-0.64305800 2.86755896 74.62500000
-0.33755499 2.87332296 74.77500153
-0.03085200 2.88196898 75.00000763
0.27705100 2.88388991 75.05000305
0.88427299 2.85603094 74.32500458
1.18682206 2.85026693 74.17500305
1.88670504 2.83489704 73.77500916
5.35243082 2.90886688 75.70000458
6.05449820 2.94825411 76.72500610
6.39834785 2.96170306 77.07500458
6.94337320 2.96938801 77.27500153
7.46243000 3.05200505 79.42500305
7.73787117 3.11925101 81.17500305
8.83103657 3.27775908 85.30000305
-16.57414436 3.02715802 76.07500458
-16.22460747 3.02019501 75.90000916
-15.48872757 2.99830890 75.35000610
-14.72552586 3.03213191 76.20000458
-13.37098885 3.05600691 76.80000305
-13.06438446 3.05799699 76.85000610
-10.74512291 3.05600691 76.80000305
-10.35532570 3.03412199 76.25000763
-8.76064777 2.95354295 74.22500610
-7.16047716 2.96349096 74.47500610
-6.39249992 2.98537707 75.02500153
-6.08873415 2.98736596 75.07500458
-5.27785397 2.99333501 75.22499847
-4.98612499 2.94260097 73.95000458
-4.84692621 2.98139811 74.92500305
-4.70084190 3.01920009 75.87500000
-4.39242601 3.02118993 75.92500305
-3.95874095 3.00726199 75.57500458
-3.64021397 3.00029898 75.40000153
-3.32754111 2.99731398 75.32500458
-3.01548409 2.99432993 75.25000763
-2.09480309 3.00228810 75.45000458
-1.78523898 3.00228810 75.45000458
0.07200800 2.99632001 75.30000305
0.58244199 2.97343898 74.72499847
1.48964798 2.94857001 74.10000610
2.69388509 2.93563700 73.77500916
3.40247202 2.93762708 73.82500458
3.71038890 2.94160604 73.92500305
3.98801398 2.99830890 75.35000610
4.30287218 3.00228810 75.45000458
5.67611408 3.01920009 75.87500000
8.09963989 3.28679895 82.60000610
8.59178352 3.34648705 84.09999847
9.37570572 3.38031006 84.95000458
-16.49327660 3.02094293 73.40000153
-16.21969986 3.02608800 73.52500916
-16.39318466 3.07753491 74.77500153
-15.81360722 3.10428691 75.42500305
-15.24504566 3.11457610 75.67500305
-14.39396858 3.13206792 76.10000610
-13.87354565 3.15573406 76.67500305
-12.70760345 3.15264702 76.60000610
-12.10029221 3.13103890 76.07500458
-11.81527996 3.13824201 76.25000763
-11.53637409 3.14750195 76.47500610
-11.24094677 3.15264702 76.60000610
-9.48672771 3.12692308 75.97499847
-8.46750069 3.05901408 74.32500458
-8.15431499 3.05592704 74.25000000
-7.83645916 3.05078292 74.12500000
-7.54249191 3.05489802 74.22500610
-7.09179401 3.07959294 74.82499695
-6.78932810 3.08165097 74.87500000
-5.77685785 3.08782411 75.02500153
-4.86633205 3.09605598 75.22499847
-2.67076898 3.05592704 74.25000000
-2.36453390 3.05386901 74.20000458
-1.47127295 3.09605598 75.22499847
-0.85030001 3.08267999 74.90000153
-0.54335397 3.08473802 74.95000458
-0.23631200 3.09091091 75.10000610
2.18865490 3.03534889 73.75000000
2.99962401 3.03946400 73.85000610
4.61702204 3.10840297 75.52500153
4.92689514 3.10840297 75.52500153
5.99925900 3.12898207 76.02500153
6.17347908 3.16499400 76.90000916
6.61131382 3.17322493 77.10000610
7.14548206 3.17631197 77.17500305
7.42249918 3.25142407 79.00000000
7.68544292 3.31830502 80.62500000
8.24740601 3.41399503 82.95000458
8.43644619 3.44486403 83.70000458
9.05638599 3.50762796 85.22500610
-16.87059784 3.17326188 74.62500000
-16.30793953 3.14349699 73.92500305
-15.00363064 3.23279405 76.02500153
-14.13921165 3.22535300 75.85000610
-13.82344818 3.22428989 75.82500458
-12.53703117 3.24023604 76.20000458
-10.56591988 3.27531695 77.02500153
-10.04247856 3.24236202 76.25000763
-9.72006130 3.23917294 76.17500305
-9.14199924 3.14774895 74.02500153
-4.89059114 3.21472192 75.60000610
-4.17923784 3.22428989 75.82500458
-3.23308492 3.21153307 75.52500153
-2.92224503 3.21046996 75.50000763
-2.17395806 3.17326188 74.62500000
-1.16108501 3.19452405 75.12500000
-0.13467000 3.21897411 75.70000458
0.17545600 3.21046996 75.50000763
0.48297599 3.19558692 75.15000153
0.88754499 3.17219901 74.60000610
1.19042206 3.16369510 74.40000153
1.68947697 3.14562201 73.97500610
3.94831991 3.17219901 74.60000610
5.24196720 3.21472192 75.60000610
7.65208006 3.41351604 80.27500153
7.85614014 3.45497608 81.25000763
8.39612961 3.54214811 83.30000305
9.60241222 3.61018395 84.90000153
-16.62181282 3.26638603 74.42500305
-16.64530373 3.33221793 75.92500305
-16.33378792 3.33221793 75.92500305
-15.66879463 3.30149698 75.22499847
-15.36015320 3.30149698 75.22499847
-14.74001980 3.34757900 76.27500153
-13.68163872 3.36952305 76.77500153
-13.37098885 3.37062001 76.80000305
-13.03888512 3.36623096 76.70000458
-10.94092846 3.36623096 76.70000458
-9.44926834 3.32124591 75.67500305
-8.83828068 3.24883103 74.02500153
-7.46854782 3.26967812 74.50000763
-6.47995806 3.28503799 74.85000610
-6.17903900 3.28833008 74.92500305
-5.48543787 3.30259395 75.25000763
-5.18873310 3.31027389 75.42500305
-4.59404278 3.32782888 75.82500458
-3.85538101 3.31685710 75.57500458
-3.54295802 3.31466293 75.52500153
-2.69055295 3.28284407 74.80000305
-2.19435000 3.30588603 75.32500458
-1.99425495 3.31575990 75.55000305
-1.68204999 3.31137109 75.45000458
-0.34297201 3.33441305 75.97499847
0.68624198 3.28723311 74.90000153
2.39362311 3.24114990 73.85000610
2.70118809 3.24663591 73.97500610
3.20704293 3.24663591 73.97500610
3.50937009 3.24553895 73.95000458
3.81793594 3.24992800 74.05000305
4.08835077 3.30478811 75.30000305
5.46497107 3.32782888 75.82500458
5.78559589 3.33331490 75.95000458
6.14939499 3.36184311 76.60000610
6.38589621 3.37610698 76.92500305
6.92315578 3.38159299 77.05000305
7.37787008 3.44632697 78.52500153
8.20017910 3.61968708 82.47500610
8.64468479 3.66467190 83.50000000
8.92409420 3.73379588 85.07500458
9.27859974 3.73599100 85.12500763
-17.15318871 3.43363094 75.87500000
-16.08894539 3.42797494 75.75000763
-15.21986294 3.41892409 75.55000305
-14.36559677 3.43702602 75.95000458
-13.99208164 3.47322893 76.75000763
-12.77891064 3.45739007 76.40000916
-12.31646824 3.44494510 76.12500000
-12.01201820 3.44720793 76.17500305
-11.71867657 3.45286393 76.30000305
-11.42804718 3.45965195 76.45000458
-10.78010178 3.48680496 77.05000305
-10.26112747 3.45399594 76.32500458
-8.56338596 3.36122608 74.27500153
-8.26420116 3.36348796 74.32500458
-7.94854307 3.35896301 74.22500610
-7.29646111 3.38611507 74.82499695
-7.00580788 3.39403391 75.00000763
-5.85791397 3.38272095 74.75000763
-5.55122089 3.38272095 74.75000763
-3.13911891 3.42797494 75.75000763
-2.57008696 3.36122608 74.27500153
-2.26381803 3.35896301 74.22500610
-1.36975706 3.40761089 75.30000305
-0.85313803 3.40082192 75.15000153
-0.54498500 3.40195394 75.17500305
0.07246200 3.42910600 75.77500153
1.39064801 3.35896301 74.22500610
1.88606501 3.33746696 73.75000000
3.96419692 3.38950896 74.90000153
4.40606022 3.41439891 75.45000458
4.71875000 3.41666198 75.50000763
5.02852106 3.41666198 75.50000763
6.10724783 3.44268203 76.07500458
7.60918379 3.61238408 79.82500458
-17.50145531 3.58735490 76.95000458
-16.86962700 3.54306698 76.00000763
-15.06786156 3.53490901 75.82500458
-14.12057018 3.53141189 75.75000763
-11.12164879 3.56637597 76.50000763
-10.48094654 3.59784508 77.17500305
-10.02930832 3.55006003 76.15000916
-9.67221069 3.53374290 75.80000305
-9.41493034 3.51509500 75.40000153
-9.13582420 3.44866300 73.97500610
-7.79247713 3.48129702 74.67500305
-4.99233294 3.52325392 75.57500458
-4.28011513 3.53257799 75.77500153
-2.82645607 3.52908111 75.70000458
-2.28821802 3.49761295 75.02500153
-0.54969698 3.53490901 75.82500458
0.38209599 3.52092290 75.52500153
0.88843697 3.48129702 74.67500305
1.58830595 3.44866300 73.97500610
2.91039896 3.45682096 74.15000153
3.83211493 3.46497989 74.32500458
5.40192604 3.56171489 76.40000916
5.59070396 3.54889393 76.12500000
6.60059500 3.58852100 76.97500610
7.13853788 3.59434795 77.10000610
7.35203314 3.64795995 78.25000000
7.83680201 3.77849507 81.05000305
8.38353062 3.87755990 83.17500305
8.73528004 3.88222194 83.27500153
9.00590992 3.95098591 84.75000000
9.50026703 3.96380591 85.02500916
9.82884502 3.95564795 84.84999847
-16.55780602 3.64684606 76.00000763
-15.78739929 3.61325598 75.30000305
-15.44761467 3.60605788 75.15000153
-14.80541229 3.65044498 76.07500458
-13.67718315 3.68283391 76.75000763
-13.33181667 3.67443705 76.57500458
-13.06666946 3.65884209 76.25000763
-12.73709488 3.65404296 76.15000916
-10.78658390 3.66364002 76.35000610
-8.83828068 3.55207610 74.02500153
-8.07717037 3.57366896 74.47500610
-7.61108303 3.59406209 74.90000153
-6.68692493 3.59286308 74.87500000
-6.37119913 3.58806396 74.77500153
-5.74028301 3.57726789 74.55000305
-5.43441105 3.57726789 74.55000305
-5.37358189 3.60485911 75.12500000
-5.29188681 3.61925411 75.42500305
-4.68225622 3.62645197 75.57500458
-3.96266890 3.63005090 75.65000916
-3.65107703 3.62885094 75.62500000
-3.35183811 3.64084697 75.87500000
-2.60122895 3.60725808 75.17500305
-2.19580698 3.61685491 75.37500000
-1.88842702 3.62045407 75.45000458
-1.57729197 3.61685491 75.37500000
-1.06010306 3.61085701 75.25000763
-0.23914400 3.64684606 76.00000763
0.68899101 3.60845804 75.20000458
1.19042206 3.57007003 74.40000153
2.18939710 3.54008007 73.77500916
2.49969006 3.55087590 74.00000000
3.21571398 3.55927300 74.17500305
3.51767492 3.55687404 74.12500000
4.08020687 3.60605788 75.15000153
5.77797890 3.63964796 75.85000610
6.24803209 3.67203808 76.52500153
7.58535290 3.81839108 79.57500458
8.22752094 3.97074294 82.75000763
-16.22460747 3.74568892 75.90000916
-15.96424294 3.73335195 75.65000916
-15.20979118 3.72594905 75.50000763
-14.45994377 3.74568892 75.90000916
-13.94551659 3.74692297 75.92500305
-13.99208164 3.78763700 76.75000763
-12.42465782 3.75802708 76.15000916
-12.12812710 3.76296210 76.25000763
-11.82690144 3.76666307 76.32500458
-11.53260231 3.77283192 76.45000458
-10.78709698 3.80490899 77.10000610
-9.99308872 3.74445510 75.87500000
-9.74363518 3.72841597 75.55000305
-9.38059139 3.70744300 75.12500000
-9.16669846 3.66302705 74.22500610
-8.67663288 3.67042994 74.37500000
-8.38836288 3.67783308 74.52500153
-8.00476456 3.68893695 74.75000763
-7.31840086 3.70374107 75.05000305
-7.01514912 3.70620894 75.10000610
-6.05629301 3.68523502 74.67500305
-3.04153109 3.74568892 75.90000916
-2.71483207 3.72471499 75.47499847
-0.75135797 3.71361208 75.25000763
0.07253400 3.74322200 75.85000610
0.69196802 3.72718310 75.52500153
1.78520203 3.63958597 73.75000000
3.86176109 3.69633889 74.90000153
4.39438105 3.71361208 75.25000763
4.70781279 3.71731305 75.32500458
5.02352524 3.72224808 75.42500305
5.20314598 3.77776694 76.55000305
5.52803516 3.78517008 76.70000458
6.08517122 3.74075389 75.80000305
6.38174486 3.79380608 76.87500000
6.82883978 3.80861092 77.17500305
7.32619476 3.84809089 77.97500610
7.80054283 3.98133707 80.67500305
8.47685146 4.09484291 82.97500610
9.25135040 4.18860817 84.87500763
10.04018307 4.17873812 84.67500305
-17.42447472 3.90892196 77.07500458
-17.16340256 3.89751101 76.85000610
-16.91401863 3.86454606 76.20000458
-15.05792618 3.84299207 75.77500153
-13.02811241 3.85567093 76.02500153
-11.22627163 3.87976098 76.50000763
-10.46397209 3.90765500 77.05000305
-9.34313202 3.79481196 74.82499695
-7.83160782 3.80622292 75.05000305
-5.24102020 3.78847194 74.70000458
-5.08052206 3.82143807 75.35000610
-4.77136803 3.82143807 75.35000610
-4.46813393 3.82650900 75.45000458
-2.39799500 3.81636596 75.25000763
-1.26803505 3.82270598 75.37500000
-0.54806602 3.83411694 75.60000610
0.38310701 3.84045601 75.72499847
0.78604603 3.78593707 74.65000153
1.39064801 3.76438189 74.22500610
1.58884299 3.75297093 74.00000000
2.70666504 3.75931096 74.12500000
3.01688600 3.76691794 74.27500153
3.73297501 3.77199006 74.37500000
5.56132698 3.84045601 75.72499847
7.06273985 3.92667294 77.42500305
7.95990705 4.11685801 81.17500305
8.82526112 4.21194887 83.05000305
9.59110260 4.30070305 84.80000305
-16.59593201 3.96729589 76.17500305
-15.72607613 3.93214107 75.50000763
-14.77135468 3.95297289 75.90000916
-14.23825359 3.94906712 75.82500458
-13.66827202 3.99463797 76.70000458
-13.39267635 3.97510791 76.32500458
-12.69946098 3.95427489 75.92500305
-10.98101997 3.97120190 76.25000763
-10.64718628 3.96339011 76.10000610
-10.28465366 3.98422194 76.50000763
-9.60840988 3.92172503 75.30000305
-8.60373783 3.88656998 74.62500000
-8.30867767 3.89177799 74.72499847
-7.53370905 3.91391206 75.15000153
-6.69808912 3.90610003 75.00000763
-6.36906910 3.89308000 74.75000763
-5.83440399 3.87745500 74.45000458
-5.52337313 3.87354898 74.37500000
-4.16683722 3.93734908 75.60000610
-3.86430907 3.94516110 75.75000763
-3.56406808 3.95687890 75.97499847
-3.25555897 3.96078491 76.05000305
-2.08994508 3.92042303 75.27500153
-1.78050601 3.91912103 75.25000763
-0.34218201 3.94776511 75.80000305
1.08903599 3.87615299 74.42500305
2.08637691 3.83839393 73.70000458
2.39362311 3.84620595 73.85000610
3.31939411 3.86573696 74.22500610
4.07477808 3.90870404 75.05000305
4.59256887 3.91261005 75.12500000
5.03851080 3.93995309 75.65000916
5.22523594 4.00375223 76.87500000
5.86426687 3.93865108 75.62500000
6.50375891 4.01416922 77.07500458
6.75160503 4.03630304 77.50000000
7.09238577 4.04932404 77.75000000
7.40370798 4.10400915 78.80000305
7.55437279 4.12744522 79.25000000
7.75944901 4.17952681 80.25000000
8.21509266 4.30321980 82.62500000
8.68545437 4.31233501 82.80000305
9.22682476 4.40868521 84.65000153
-16.26735878 4.06730509 76.10000610
-16.01700020 4.05661488 75.90000916
-15.42140961 4.03657293 75.52500153
-14.09245682 4.10070896 76.72500610
-12.42465782 4.06997681 76.15000916
-12.14403152 4.08066702 76.35000610
-11.83852291 4.08333921 76.40000916
-11.54391575 4.09002018 76.52500153
-10.19726753 4.05394316 75.85000610
-9.95687008 4.04058123 75.60000610
-9.20066166 3.98179007 74.50000763
-8.88902473 3.97911692 74.45000458
-7.22777891 4.01786709 75.17500305
-6.92394400 4.02053785 75.22499847
-5.05186605 4.00450516 74.92500305
-4.75553703 4.01385784 75.10000610
-2.93192101 4.04859877 75.75000763
-2.71573210 4.03523684 75.50000763
-0.95750600 4.02321100 75.27500153
-0.03119100 4.05260706 75.82500458
0.59082103 4.05127001 75.80000305
0.79552197 4.03790903 75.55000305
1.78822803 3.94838595 73.87500763
4.90895510 4.02187490 75.25000763
5.07014704 4.06864119 76.12500000
5.48298883 4.06596899 76.07500458
6.22149706 4.07264900 76.20000458
6.78209686 4.16083717 77.84999847
7.11975193 4.17152596 78.05000305
7.69901705 4.25570488 79.62500763
8.54633141 4.41203690 82.55000305
9.07695007 4.45078611 83.27500153
9.79988575 4.52160311 84.59999847
-17.46968842 4.23562384 77.27500153
-17.17457008 4.21506977 76.90000916
-16.92511940 4.17944193 76.25000763
-15.15155411 4.15066481 75.72499847
-14.45518017 4.15888691 75.87500000
-14.08636284 4.17258978 76.12500000
-13.14072323 4.16984987 76.07500458
-11.22994041 4.19451523 76.52500153
-9.47386837 4.11366701 75.05000305
-8.11784077 4.10270500 74.85000610
-7.83943510 4.11777782 75.12500000
-6.14605188 4.08489084 74.52500153
-5.23225021 4.08763123 74.57500458
-4.45629120 4.12462902 75.25000763
-2.39958811 4.12736988 75.30000305
-1.87778997 4.11229706 75.02500153
-1.47665095 4.13833189 75.50000763
-0.64973599 4.13285112 75.40000153
0.27982000 4.15477610 75.80000305
0.88665301 4.08489084 74.52500153
1.39392698 4.07803917 74.40000153
2.59913802 4.05337381 73.95000458
2.91334200 4.06844711 74.22500610
3.62637401 4.07118702 74.27500153
3.86047196 4.10407495 74.87500000
4.37978220 4.11092710 75.00000763
5.42667294 4.20684814 76.75000763
5.56683588 4.15477610 75.80000305
6.27048397 4.20958900 76.80000305
6.55438900 4.25754881 77.67500305
7.15167999 4.29728794 78.40000153
7.42484903 4.33154583 79.02500916
7.91333008 4.42335701 80.70000458
8.17780781 4.50831604 82.25000763
8.61989307 4.50420523 82.17500305
8.86619186 4.51516724 82.37500000
9.01972580 4.53572178 82.75000763
9.44439888 4.63301420 84.52500153
10.14399433 4.63575506 84.57500458
-16.61771774 4.28496599 76.27500153
-15.79897881 4.26109123 75.85000610
-14.86046028 4.25968599 75.82500458
-13.77766132 4.31024599 76.72500610
-13.50148296 4.28917980 76.35000610
-12.81173038 4.26811314 75.97499847
-10.96301842 4.27653885 76.12500000
-10.72654057 4.26530409 75.92500305
-9.72428989 4.23580980 75.40000153
-8.81376076 4.19508219 74.67500305
-8.52446365 4.20350790 74.82499695
-7.52619123 4.21755314 75.07500458
-6.70701885 4.21895695 75.10000610
-6.46913624 4.19789124 74.72499847
-5.82460785 4.17541885 74.32500458
-5.51965904 4.17541885 74.32500458
-4.26599407 4.24283314 75.52500153
-3.97183609 4.25968599 75.82500458
-3.67521596 4.27653885 76.12500000
-3.36398602 4.27794409 76.15000916
-3.14533496 4.26389980 75.90000916
-1.56787598 4.20912600 74.92500305
-1.16765404 4.24423695 75.55000305
-0.34139201 4.24845123 75.62500000
1.69404495 4.16699314 74.17500305
2.08779192 4.14311695 73.75000000
2.39038205 4.14311695 73.75000000
3.21788096 4.16980219 74.22500610
4.69218779 4.21755314 75.07500458
4.84595680 4.26249504 75.87500000
5.08846283 4.29198790 76.40000916
5.51181889 4.29620218 76.47500610
5.86426687 4.24845123 75.62500000
6.40457392 4.33412218 77.15000153
6.91290092 4.38889599 78.12500763
7.66517591 4.45349979 79.27500916
-17.56011772 4.46968079 77.67500305
-16.31545639 4.39199781 76.32500458
-16.06975555 4.38192797 76.15000916
-15.46735287 4.35891104 75.75000763
-14.07408905 4.40926123 76.62500000
-12.53703117 4.38480520 76.20000458
-12.26048374 4.39775181 76.42500305
-11.95082664 4.39918995 76.45000458
-11.64857483 4.40350580 76.52500153
-10.39445019 4.36034918 75.77500153
-10.06691837 4.35315609 75.65000916
-9.32127953 4.29561186 74.65000153
-7.21816397 4.32006884 75.07500458
-5.03838015 4.29992819 74.72499847
-4.74287224 4.30999899 74.90000153
-2.92708302 4.35171700 75.62500000
-2.60901499 4.33876991 75.40000153
-2.18925190 4.32438421 75.15000153
-1.48154104 4.35891104 75.75000763
-0.03114000 4.35603285 75.70000458
0.59121102 4.36466503 75.85000610
1.09232795 4.29561186 74.65000153
5.82178116 4.39775181 76.42500305
6.05646992 4.41645384 76.75000763
6.68205690 4.48406696 77.92500305
7.29593801 4.53441811 78.80000305
8.14300919 4.71280193 81.90000916
8.48421383 4.71567917 81.95000458
8.81506634 4.71280193 81.90000916
9.67273617 4.86241484 84.50000000
10.38759708 4.87248516 84.67500305
-17.04056740 4.49474716 76.30000305
-15.16656113 4.46529293 75.80000305
-14.67238235 4.47265720 75.92500305
-14.37978268 4.47854805 76.02500153
-13.27088165 4.49032879 76.22500610
-12.95388603 4.48885584 76.20000458
-11.33830261 4.50947380 76.55000305
-8.20098972 4.39902020 74.67500305
-8.06090164 4.37840223 74.32500458
-7.80552006 4.40638399 74.80000305
-6.34350681 4.38576603 74.45000458
-5.33066607 4.39018393 74.52500153
-4.55617619 4.42994690 75.20000458
-1.97709703 4.41227388 74.90000153
-1.66533005 4.40049314 74.70000458
-1.17267704 4.46971083 75.87500000
-0.85626000 4.44320202 75.42500305
-0.54716003 4.44614697 75.47499847
0.27963501 4.46234798 75.75000763
1.39814198 4.39607477 74.62500000
1.89309800 4.36072922 74.02500153
2.59562302 4.35042000 73.85000610
2.80709410 4.36514807 74.10000610
3.52241993 4.37251091 74.22500610
3.73673892 4.38576603 74.45000458
3.95890498 4.40638399 74.80000305
4.27578306 4.41669321 74.97499847
4.64300299 4.47412920 75.95000458
4.86990786 4.49180222 76.25000763
5.30783796 4.50947380 76.55000305
6.44193077 4.57132912 77.60000610
7.04670286 4.61992788 78.42500305
7.53530884 4.65674591 79.05000305
7.90107203 4.74658298 80.57500458
9.16049004 4.88943720 83.00000763
10.03425503 4.98516417 84.62500763
-17.49882698 4.69386816 77.87500763
-16.75491905 4.60647011 76.42500305
-16.46286774 4.61249685 76.52500153
-15.84584427 4.58537388 76.07500458
-14.21843433 4.59742785 76.27500153
-13.75521469 4.61701822 76.60000610
-13.50590324 4.60345602 76.37500000
-12.67442417 4.60496283 76.40000916
-11.10347557 4.60345602 76.37500000
-10.81254673 4.56879807 75.80000305
-9.84696102 4.55373001 75.55000305
-9.53067398 4.55071592 75.50000763
-9.01801682 4.50098896 74.67500305
-8.72912979 4.51003122 74.82499695
-7.92444801 4.46030378 74.00000000
-7.76377916 4.48441410 74.40000153
-7.49862194 4.50852394 74.80000305
-7.00347185 4.51907206 74.97499847
-6.68469286 4.51153803 74.85000610
-6.03196192 4.48290682 74.37500000
-5.72873402 4.48441410 74.40000153
-4.46961498 4.54920912 75.47499847
-4.17372704 4.56427813 75.72499847
-3.87833810 4.58235979 76.02500153
-3.68245792 4.59742785 76.27500153
-3.37282109 4.60194921 76.35000610
-3.23736596 4.55824995 75.62500000
-2.39799500 4.53564692 75.25000763
-0.23780701 4.55523586 75.57500458
0.90182197 4.56879807 75.80000305
0.99321902 4.51304483 74.87500000
1.69804204 4.48140001 74.35000610
2.18939710 4.44674301 73.77500916
3.11531901 4.47235918 74.20000458
6.17548513 4.63660717 76.92500305
6.31334877 4.66071701 77.32500458
6.80387592 4.70742893 78.09999847
8.35425758 4.92893791 81.77500153
9.43322563 5.08866501 84.42500305
10.65225410 5.17606306 85.87500763
-16.11723709 4.70774698 76.37500000
-15.50308609 4.68000889 75.92500305
-14.99376297 4.68309116 75.97499847
-14.06490517 4.72007513 76.57500458
-12.38927555 4.72007513 76.57500458
-12.07115173 4.71853399 76.55000305
-11.76475334 4.72161579 76.60000610
-10.58072853 4.66151714 75.62500000
-10.26025963 4.65689421 75.55000305
-9.32752323 4.60449982 74.70000458
-8.41931534 4.61066389 74.80000305
-7.61053514 4.55518818 73.90000153
-5.13885784 4.60449982 74.70000458
-4.83560514 4.60758209 74.75000763
-3.02249599 4.64918900 75.42500305
-2.70763898 4.63994312 75.27500153
-1.47909606 4.66151714 75.62500000
-1.38249004 4.68463182 76.00000763
-1.17808700 4.69850111 76.22500610
-0.96227598 4.66305780 75.65000916
0.07229500 4.65997601 75.60000610
0.59082103 4.67230415 75.80000305
1.30042398 4.61528683 74.87500000
4.41773987 4.66305780 75.65000916
4.55855513 4.70158291 76.27500153
4.98560715 4.71082878 76.42500305
5.61640882 4.71391106 76.47500610
5.94568777 4.72623920 76.67500305
6.56493711 4.79558420 77.80000305
7.18132591 4.85260105 78.72500610
7.70143509 4.90961695 79.65000153
8.68711758 5.03906107 81.75000763
9.18256283 5.12843895 83.20000458
9.79988575 5.21473503 84.59999847
10.16798306 5.22552204 84.77500916
-17.01390648 4.82936382 76.65000916
-16.71575737 4.83408880 76.72500610
-14.82973862 4.80101109 76.20000458
-14.51709747 4.80101109 76.20000458
-13.27088165 4.80258703 76.22500610
-12.97938538 4.81046200 76.35000610
-11.45046997 4.82621288 76.60000610
-8.23362446 4.66555023 74.05000305
-7.37160206 4.69705200 74.55000305
-7.08468485 4.70965290 74.75000763
-6.66236591 4.70020294 74.60000610
-6.43667078 4.68445206 74.35000610
-5.54193783 4.70177794 74.62500000
-2.18925190 4.73485613 75.15000153
-1.97643697 4.71752882 74.87500000
-1.66421497 4.70335293 74.65000153
-1.47176194 4.74115705 75.25000763
-0.65145999 4.76320791 75.60000610
1.09964502 4.73485613 75.15000153
1.60065198 4.69705200 74.55000305
1.89629495 4.67185020 74.15000153
2.49631190 4.65609884 73.90000153
2.80993509 4.67342615 74.17500305
3.41975498 4.67500114 74.20000458
3.73673892 4.69075203 74.45000458
3.95493603 4.70807791 74.72499847
4.17324400 4.72383022 74.97499847
5.30437088 4.81991291 76.50000763
6.93502283 4.93804789 78.37500763
7.42014980 4.97585106 78.97500610
7.73769379 5.04200697 80.02500916
7.92068386 5.08926105 80.77500153
8.12063789 5.14596605 81.67500305
10.42133427 5.35230923 84.95000458
-17.15818596 4.97587204 77.30000305
-16.41164780 4.94207716 76.77500153
-16.16471863 4.93081188 76.60000610
-15.76766491 4.90506315 76.20000458
-15.32562828 4.89701700 76.07500458
-15.07270336 4.91632795 76.37500000
-14.24639702 4.91954708 76.42500305
-13.89163876 4.94207716 76.77500153
-13.63708687 4.92598391 76.52500153
-12.70345592 4.92920303 76.57500458
-11.11074448 4.91954708 76.42500305
-10.80541420 4.87609720 75.75000763
-9.95028496 4.86322212 75.55000305
-9.64987946 4.86805010 75.62500000
-9.02405453 4.81011581 74.72499847
-8.72621346 4.81494379 74.80000305
-7.90570784 4.75218201 73.82500458
-7.39837313 4.75057316 73.80000305
-7.22088814 4.76666594 74.05000305
-6.13574314 4.78919601 74.40000153
-5.84615898 4.80207014 74.60000610
-4.64198494 4.82299089 74.92500305
-4.57283688 4.85839415 75.47499847
-4.27729082 4.87448692 75.72499847
-3.97969294 4.89058018 75.97499847
-3.78925705 4.91310978 76.32500458
-3.48520994 4.92598391 76.52500153
-3.22452402 4.84873915 75.32500458
-1.28822303 4.92920303 76.57500458
-0.97308803 4.92437506 76.50000763
-0.34139201 4.86805010 75.62500000
0.38260099 4.86805010 75.62500000
0.90182197 4.87931490 75.80000305
1.10403395 4.85678482 75.45000458
2.19459105 4.76022911 73.95000458
3.11636806 4.77793121 74.22500610
4.29146624 4.84391117 75.25000763
6.18150711 4.95656013 77.00000763
6.32559681 4.98713589 77.47500610
8.45574379 5.25749397 81.67500305
8.90800095 5.26071310 81.72499847
9.44439888 5.44095087 84.52500153
9.93316936 5.45543480 84.75000000
10.46733665 5.49244785 85.32500458
-16.90290260 5.06827688 77.10000610
-15.88664627 5.04691410 76.77500153
-15.38606262 5.02061892 76.37500000
-14.76417637 5.02226305 76.40000916
-12.39332008 5.03540897 76.60000610
-12.08297825 5.03705311 76.62500000
-11.78779125 5.04526997 76.75000763
-10.57373333 4.96802902 75.57500458
-10.25007439 4.96145582 75.47499847
-9.33064556 4.91215420 74.72499847
-7.05151320 4.89078903 74.40000153
-5.45445824 4.91872692 74.82499695
-5.15433598 4.92530107 74.92500305
-2.90966606 4.94173479 75.17500305
-2.60036397 4.94009209 75.15000153
-2.32481694 5.01075792 76.22500610
-1.47665095 4.96309900 75.50000763
-1.38021600 4.98775101 75.87500000
-0.86080098 4.98446417 75.82500458
-0.03107800 4.96638584 75.55000305
1.40376306 4.92530107 74.92500305
4.55855513 5.01404476 76.27500153
4.87948799 5.02226305 76.40000916
5.49019718 5.00747204 76.17500305
5.81606722 5.01897478 76.35000610
6.05055189 5.04033995 76.67500305
6.56493711 5.11429405 77.80000305
6.84743500 5.16688299 78.59999847
7.08713818 5.18495989 78.87500763
7.54484081 5.20303679 79.15000153
8.93797588 5.39038610 82.00000763
9.20739555 5.48406076 83.42500305
10.18597317 5.58266497 84.92500305
10.53787518 5.64675808 85.90000153
-16.57581139 5.17020416 77.05000305
-15.57671547 5.15342808 76.80000305
-13.93687439 5.16852617 77.02500153
-13.48821926 5.11819887 76.27500153
-13.11481285 5.09471416 75.92500305
-12.94242859 5.06787300 75.52500153
-12.88339901 5.12658787 76.40000916
-11.45046997 5.14000702 76.60000610
-10.87673759 5.11652184 76.25000763
-8.48459053 4.99741602 74.47500610
-8.34896755 4.97728586 74.17500305
-8.12411404 4.96386480 73.97500610
-6.76212502 5.00412607 74.57500458
-6.43883610 4.99070597 74.37500000
-4.85501099 5.03599977 75.05000305
-2.09063911 5.05277491 75.30000305
-1.97247803 5.01419210 74.72499847
-1.66477299 5.01083708 74.67500305
-0.54933500 5.08464909 75.77500153
0.59023601 5.08129406 75.72499847
1.60226202 5.00748205 74.62500000
1.79730499 4.98231792 74.25000000
2.40334702 4.97560787 74.15000153
2.71305490 4.98567295 74.30000305
3.42206001 4.98231792 74.25000000
3.73548508 4.99406099 74.42500305
4.05713177 5.01419210 74.72499847
4.50177813 5.05445290 75.32500458
4.74531317 5.09471416 75.92500305
5.19294977 5.12658787 76.40000916
7.73044205 5.36479902 79.95000458
7.90597486 5.41009283 80.62500000
8.11069489 5.47384024 81.57500458
8.68180370 5.48222685 81.70000458
8.98430061 5.53087711 82.42500305
9.30948353 5.66004801 84.34999847
9.68704605 5.67850113 84.62500763
10.79800606 5.84122276 87.05000305
-17.29752350 5.40208101 78.90000153
-16.23857689 5.26856899 76.95000458
-15.23180485 5.24802923 76.65000916
-14.45544243 5.23262405 76.42500305
-14.17425919 5.24460506 76.60000610
